# .PCD v0.7 - Point Cloud Data file format
VERSION 0.7
FIELDS x y z
SIZE 4 4 4
TYPE F F F
COUNT 1 1 1
WIDTH 1512
HEIGHT 1
VIEWPOINT 0 0 0 1 0 0 0
POINTS 1512
DATA ascii
-0.062177259 0.067744903 1.516
-0.13462086 0.068370521 1.5300001
0.070912674 0.23105574 1.1190001
-0.14133295 0.22251174 1.1350001
0.49845907 0.053495474 1.562
-0.023540065 0.21087326 1.169
0.34943193 0.24324542 1.095
0.2486676 -0.003871649 1.6930001
-0.43522465 0.029893106 1.608
0.03128019 0.10242298 1.447
0.44195667 0.053563971 1.5640001
0.074688345 0.11460358 1.411
0.27356654 0.16996978 1.274
0.27695632 0.075357892 1.5100001
-0.11115772 0.13711846 1.3430001
0.1404691 0.16983636 1.273
0.24662258 0.12685756 1.3840001
-0.32554576 0.22290382 1.1370001
-0.018303959 0.18291149 1.2270001
0.48984295 0.068593957 1.5350001
-0.4599449 0.11208571 1.3800001
-0.13962373 0.082577489 1.498
-0.40506575 0.060227159 1.526
0.10126761 0.038047604 1.598
0.38063237 0.15974547 1.299
0.30888933 0.0754577 1.5120001
0.10429356 0.11476603 1.4130001
0.40447623 0.054009195 1.577
-0.35306376 0.06738741 1.508
0.39498913 0.053837955 1.572
0.17816527 0.19348642 1.2130001
-0.21680437 0.22682549 1.1270001
-0.06886255 -0.0038396332 1.6790001
-0.2815063 -0.012707881 1.6930001
0.36217031 0.053837955 1.572
0.43495035 0.23208815 1.1240001
0.22079894 0.22329591 1.1390001
0.0068772016 0.2141905 1.154
-0.12584747 0.21456172 1.156
-0.42139706 0.10051184 1.4200001
0.35411903 0.0047211922 1.6100001
0.42631564 0.021781303 1.6290001
0.37701029 0.22427614 1.1440001
0.24235177 0.022062095 1.6500001
0.5606761 0.083238997 1.5100001
-0.20617376 0.1488867 1.3230001
-0.37905237 0.10107811 1.4280001
-0.47872689 0.013629628 1.6720001
0.54009342 0.23520248 1.1110001
0.22662772 0.082136489 1.4900001
0.064633936 0.07590685 1.521
0.31808245 0.053324234 1.557
-0.4197883 0.19189131 1.2030001
0.16329958 0.15937653 1.296
0.41731039 0.10263532 1.45
0.30182964 0.053324234 1.557
0.062249403 -0.0038190514 1.6700001
0.33212405 0.067476787 1.5100001
0.098786607 0.17981602 1.25
0.52578771 0.1031308 1.457
0.29181689 0.052981753 1.5470001
0.28465974 0.053152993 1.552
0.29401389 0.021433659 1.603
0.10741692 0.17010321 1.2750001
0.21074358 0.21925943 1.149
0.22117136 0.03013478 1.6210001
0.25951999 0.052981753 1.5470001
-0.045802061 0.074759014 1.498
0.22546059 0.052570779 1.5350001
0.54109228 0.21586098 1.1630001
-0.051672552 -0.012685362 1.6900001
-0.061813917 0.14348404 1.337
0.034699656 0.15900762 1.2930001
-0.34481022 0.15296564 1.299
0.21844061 0.052810512 1.5420001
-0.11585813 0.082356989 1.4940001
-0.22644071 0.21868694 1.146
-0.004891179 0.242579 1.092
-0.42391223 0.0380238 1.5970001
0.21134758 0.05305025 1.549
0.26448411 0.10206906 1.442
-0.068451583 0.23414396 1.1060001
-0.280009 0.2256179 1.1210001
-0.17270206 0.18365684 1.2320001
0.20470637 0.053426977 1.5600001
0.18108912 0.053666715 1.567
-0.14829198 0.037880939 1.5910001
-0.22877553 0.14316209 1.3340001
0.0011184005 0.075407796 1.511
0.15625361 0.053563971 1.5640001
-0.51073503 0.23622879 1.0890001
-0.19101401 0.20155975 1.1860001
-0.4382886 0.22857791 1.107
-0.0069515663 0.061253313 1.552
-0.017304476 0.21530415 1.1600001
0.51403606 0.20376907 1.199
0.37161624 0.029986057 1.613
0.1799674 0.089913219 1.4900001
-0.35740715 -0.0038327726 1.6760001
0.3244155 0.021233095 1.5880001
0.11876032 0.038309511 1.6090001
0.28319904 0.21964107 1.151
-0.030769223 0.068281151 1.5280001
-0.1237385 0.082412116 1.4950001
-0.020407345 0.13253096 1.368
-0.47964433 0.080592982 1.462
0.0011576297 0.053563971 1.5640001
0.56656605 0.053769458 1.5700001
0.4576613 0.095591888 1.4580001
0.45373917 0.18854406 1.222
-0.19137466 0.11517213 1.4180001
-0.37105182 0.22172754 1.131
0.49658448 0.045923542 1.582
-0.31030086 0.013515505 1.6580001
0.54534882 0.038190465 1.6040001
0.079784676 0.17453964 1.2590001
-0.3409262 -0.0038442069 1.6810001
0.10830478 0.054077692 1.5790001
0.0010162566 0.13301536 1.373
0.033744559 0.053461228 1.5610001
0.091473393 0.053872202 1.5730001
-0.006149807 0.13301536 1.373
-0.027841108 0.23818108 1.098
0.46428266 0.23208815 1.1240001
0.2505227 0.22329591 1.1390001
-0.27835968 0.06038503 1.5300001
0.28934473 0.24645959 1.0840001
0.083263479 0.053872202 1.5730001
0.31074688 0.0047006649 1.603
0.043045819 0.029818747 1.6040001
-0.064675882 0.17426239 1.2570001
0.066758655 0.053803708 1.5710001
-0.29427493 0.2141905 1.154
0.041945521 0.053529724 1.5630001
0.27502847 0.095591888 1.4580001
-0.49090081 0.038047604 1.598
-0.076973043 0.082467243 1.4960001
0.00083935546 0.22231568 1.1340001
0.53395522 0.2117752 1.174
-0.21511173 0.0048619481 1.6580001
0.16484554 0.013450292 1.6500001
-0.039352823 0.053152993 1.552
0.28404364 0.037952371 1.5940001
0.20320445 0.14337672 1.3360001
-0.22456266 0.10199828 1.4410001
0.095953017 0.15986845 1.3000001
-0.2533927 0.03022773 1.626
0.26936945 0.10853123 1.4280001
0.48289624 0.013433988 1.6480001
-0.34828317 0.045197826 1.557
-0.24281719 0.0048971372 1.6700001
0.50149107 0.082577489 1.498
-0.092836685 0.082687743 1.5000001
-0.05580401 0.053392727 1.559
0.061951201 0.0048736776 1.6620001
0.3829284 0.07605657 1.524
-0.23095202 0.08169549 1.4820001
0.13097729 0.15437871 1.3110001
-0.080420367 0.053529724 1.5630001
0.21027069 0.20669881 1.1800001
-0.1046251 0.053392727 1.559
-0.28588364 0.0048883394 1.6670001
-0.11290662 0.053461228 1.5610001
-0.12105391 0.053461228 1.5610001
-0.15364306 0.053461228 1.5610001
0.42784795 0.19817011 1.2030001
-0.21018155 0.038571417 1.6200001
-0.16158304 0.053392727 1.559
-0.1966209 0.054077692 1.5790001
0.27131695 0.15925357 1.2950001
0.026417172 0.029948877 1.6110001
0.0095708715 0.029855926 1.6060001
-0.41832969 0.20997132 1.164
0.030808354 0.21906859 1.148
-0.14283301 0.17356922 1.2520001
0.31531429 0.075108364 1.5050001
-0.44867882 0.060740236 1.539
-0.45521027 0.22837144 1.1060001
-0.2357184 0.053598218 1.5650001
-0.47473726 0.21140639 1.1390001
-0.24295153 0.053392727 1.559
0.27777284 0.24623221 1.0830001
0.063909262 0.23839802 1.0990001
-0.1469672 0.13783315 1.35
-0.39630613 0.082301863 1.493
-0.041457389 0.021861531 1.6350001
-0.079494223 0.060977042 1.5450001
0.57373965 0.11574069 1.4250001
-0.27337834 0.052981753 1.5470001
0.051970612 0.18869837 1.223
0.054384362 0.09565746 1.4590001
-0.30607039 0.05305025 1.549
-0.034011267 -0.0038625018 1.6890001
-0.25006661 0.1838059 1.233
-0.29193345 0.013466595 1.6520001
0.36095074 0.068459891 1.5320001
-0.31334382 0.052913256 1.5450001
-0.30599633 0.030395044 1.6350001
-0.32203171 0.053016003 1.5480001
0.58720738 0.038190465 1.6040001
0.49087006 0.15567403 1.322
-0.46174955 -0.012805461 1.7060001
-0.22902352 0.11549702 1.4220001
-0.33775365 0.052947506 1.5460001
-0.38349739 0.23839802 1.0990001
-0.27081141 0.10242298 1.447
-0.34492785 0.052810512 1.5420001
0.21170928 0.17495555 1.2620001
-0.43397325 0.15765488 1.2820001
-0.35228926 0.052707769 1.539
-0.18940341 0.20599812 1.176
-0.33347338 0.038166653 1.603
-0.2101023 0.10228141 1.4450001
-0.14033677 0.22682549 1.1270001
-0.23204288 0.074309863 1.4890001
0.27890453 0.23499076 1.11
-0.4674288 0.15765488 1.2820001
0.24683258 0.037357133 1.5690001
-0.38466892 0.052742019 1.5400001
0.25802064 0.17509417 1.263
0.14770156 0.11411625 1.4050001
0.31732175 0.012993797 1.5940001
-0.42320201 0.052536529 1.534
0.27592859 0.16473059 1.2850001
0.079013795 0.013499202 1.6560001
-0.28416869 0.013507353 1.6570001
0.24483675 0.17509417 1.263
-0.082005739 0.14911176 1.325
-0.43120837 0.052536529 1.534
0.26209846 0.17995988 1.251
0.31451982 0.16060631 1.3060001
0.038081057 0.11525335 1.419
0.47014913 0.23208815 1.1240001
-0.48330802 0.052981753 1.5470001
0.3325772 0.22843562 1.1350001
-0.092715137 0.013336168 1.636
-0.48852354 0.052673522 1.5380001
0.56151831 0.15913059 1.294
-0.36528957 0.23774725 1.0960001
0.48909748 0.075258076 1.508
-0.3842119 0.22251174 1.1350001
-0.22268561 0.013450292 1.6500001
0.58481115 0.045720343 1.575
-0.38426459 0.12529935 1.3670001
0.25556913 0.17995988 1.251
0.30770344 0.16060631 1.3060001
-0.417952 0.021915013 1.6390001
0.030718142 0.1154158 1.4210001
0.57010829 0.046533149 1.603
-0.47138727 0.053461228 1.5610001
-0.26735517 0.013531809 1.6600001
0.53854895 0.045981605 1.5840001
0.10202806 0.029930288 1.6100001
-0.32138669 0.11403503 1.404
0.52827293 0.045807429 1.5780001
0.13956983 0.053426977 1.5600001
0.48832756 0.045923542 1.582
-0.006360325 0.11533458 1.4200001
-0.25588197 0.15925357 1.2950001
-0.22562693 0.074759014 1.498
-0.34537694 0.094608434 1.4430001
-0.042202007 0.20652363 1.179
-0.14910762 0.15390769 1.307
0.085116126 0.029893106 1.608
0.25998327 0.075008549 1.503
0.46795222 0.046358977 1.5970001
-0.40658769 0.21906859 1.148
0.45990482 0.046388004 1.598
-0.29862431 0.1432694 1.335
-0.28338799 0.18455125 1.238
-0.15236351 0.061095443 1.5480001
0.045587439 0.18869837 1.223
0.074905075 0.20704913 1.182
-0.4789277 0.15249461 1.2950001
0.40857998 0.046242863 1.5930001
0.36795565 0.12887408 1.406
0.40051699 0.04627189 1.5940001
-0.11572748 0.029744385 1.6
0.18214914 0.1432694 1.335
-0.33504465 0.022088837 1.6520001
0.54202694 0.098476693 1.5020001
0.36769965 0.046329949 1.5960001
0.42323029 0.18916124 1.2260001
0.55501825 0.068728015 1.5380001
0.00086156063 0.20997132 1.164
0.33820042 0.045720343 1.575
0.11059637 0.23435566 1.107
-0.104578 0.22581917 1.1220001
-0.16624159 -0.012677857 1.6890001
0.4074575 0.23562588 1.113
-0.22531921 0.12823246 1.399
-0.016170735 0.24645959 1.0840001
-0.12136919 -0.012595288 1.6780001
-0.3581917 0.2103321 1.166
0.42669728 0.075357892 1.5100001
0.12182342 0.1023522 1.4460001
0.15481344 0.021861531 1.6350001
-0.49180248 0.16996475 1.2260001
0.18997183 0.17967218 1.2490001
-0.48549688 0.021874901 1.636
0.31027392 0.24391186 1.098
-0.21693608 0.082246743 1.4920001
0.31234494 0.045546174 1.5690001
0.16454823 0.19866431 1.2060001
-0.35807127 0.021915013 1.6390001
0.16547339 0.12557432 1.3700001
-0.26082093 0.2103321 1.166
0.42499125 0.17981602 1.25
0.22244743 0.16485877 1.286
-0.10422578 0.13722056 1.3440001
0.40716702 0.096247524 1.4680001
0.2890617 0.045749374 1.5760001
-0.49299282 -0.0038670753 1.6910001
0.034780562 0.24668694 1.085
-0.17716306 0.23861493 1.1
0.46247014 0.068102397 1.524
-0.30419439 -0.0038236249 1.6720001
0.017159337 0.068593957 1.5350001
-0.10686245 0.11911543 1.378
-0.31947064 0.21493295 1.1580001
0.56791544 0.14391331 1.3410001
-0.41167706 0.060029823 1.521
-0.19951142 0.22722802 1.1290001
-0.2443137 0.16943613 1.2700001
0.36896139 0.053632468 1.5660001
-0.29517245 0.22961035 1.1120001
-0.39969432 0.1780898 1.238
0.14648096 0.061055973 1.5470001
-0.46072394 0.021915013 1.6390001
0.12541948 0.046068691 1.5870001
-0.10734474 0.18823548 1.22
0.075578414 0.045981605 1.5840001
-0.41383129 0.22251174 1.1350001
-0.38366869 0.13681217 1.34
0.058894645 0.045865487 1.58
-0.26165786 0.18931554 1.2270001
-0.36975732 0.0048472858 1.6530001
0.050552025 0.045778401 1.577
0.50693595 0.053529724 1.5630001
0.025876038 0.045807429 1.5780001
-0.43929124 0.13671008 1.3390001
-0.37655351 0.013409534 1.6450001
0.0012131425 0.021915013 1.6390001
-0.07820715 0.12649092 1.3800001
0.52790087 0.10959525 1.442
0.33165616 0.029428352 1.5830001
0.21758637 0.24280114 1.0930001
0.0094278445 0.045923542 1.582
-0.13090403 0.16850223 1.263
0.0011672518 0.045778401 1.577
0.50659156 0.22349197 1.1400001
-0.015255546 0.045662288 1.5730001
-0.430383 0.10647916 1.401
-0.056591496 0.045894518 1.5810001
0.3036288 0.11484724 1.414
-0.41398567 0.10051184 1.4200001
0.23015682 0.095919706 1.4630001
0.013872793 0.17852135 1.2410001
-0.0067500067 0.075208172 1.5070001
-0.22465962 0.15426095 1.3100001
0.38700867 0.038261894 1.6070001
0.44495291 0.0047945026 1.6350001
0.019644801 0.19734646 1.1980001
0.55752218 0.13956884 1.3670001
-0.16517384 0.22270776 1.136
0.49713898 0.089611486 1.485
0.38920382 0.20687398 1.1810001
-0.23554723 0.030116191 1.6200001
-0.072447576 0.045488112 1.567
-0.042041279 0.12603262 1.3750001
-0.15067986 0.16850223 1.263
0.48007014 0.12205443 1.4120001
0.0011901972 0.029893106 1.608
0.38294229 0.21567537 1.1620001
-0.22197928 0.1432694 1.335
0.17280017 0.053632468 1.5660001
0.23403685 0.13813946 1.353
0.32807285 0.10822722 1.424
-0.42095086 0.242579 1.092
0.53634143 0.22349197 1.1400001
-0.29283172 0.089430459 1.4820001
0.49357709 0.18514755 1.2420001
-0.27040109 0.16916929 1.268
-0.38851374 0.082301863 1.493
-0.30914339 0.038261894 1.6070001
0.32662788 0.053392727 1.559
-0.15472573 0.045633256 1.572
-0.1715706 0.045749374 1.5760001
0.067693532 0.037928559 1.5930001
-0.17979617 0.045749374 1.5760001
0.39938506 0.2027494 1.1930001
-0.20564057 0.046010632 1.585
-0.015139166 0.053461228 1.5610001
0.024203444 0.08906839 1.4760001
-0.22288658 0.046155773 1.59
0.17053317 0.24645959 1.0840001
-0.36180016 0.17852135 1.2410001
0.57886618 0.08906839 1.4760001
0.38580453 0.046504121 1.6020001
-0.1156696 0.17852135 1.2410001
0.13916959 0.12041204 1.393
-0.2145852 0.2469143 1.0860001
0.5295018 0.21964107 1.151
0.20315367 0.1931674 1.2110001
0.21181065 0.0049293935 1.6810001
-0.47392333 0.0380238 1.5970001
0.43913084 0.061332244 1.554
-0.45758438 0.16743492 1.2550001
0.43129748 0.061371714 1.5550001
0.025630068 0.053529724 1.5630001
0.53326416 0.16549975 1.291
-0.19554129 0.20599812 1.176
-0.084330767 0.013360622 1.6390001
-0.34162664 0.038142845 1.6020001
-0.21749353 0.10221063 1.4440001
0.41397756 0.21604657 1.164
0.47260302 0.18455125 1.238
0.37448213 0.075956762 1.5220001
0.050525803 0.20206958 1.189
0.053244717 0.0048707454 1.6610001
-0.25269896 0.045546174 1.5690001
0.52963942 0.0047886376 1.6330001
0.39857706 0.061332244 1.554
-0.0070008365 0.053529724 1.5630001
-0.17999297 0.21437612 1.1550001
-0.30124283 0.14809893 1.3160001
-0.06636069 0.021634223 1.618
-0.39309955 -0.0038396332 1.6790001
0.45841619 0.23208815 1.1240001
-0.072483286 0.16396141 1.279
0.24457794 0.22329591 1.1390001
0.49996069 0.16562796 1.2920001
-0.49785846 0.22360526 1.1110001
-0.27744278 0.045575198 1.5700001
-0.11666776 0.021567369 1.613
0.43313342 0.18425313 1.2360001
0.13631417 0.038523797 1.618
0.26304474 0.18900694 1.225
0.15624282 0.13803735 1.3520001
-0.090670496 0.096050836 1.465
-0.054479606 0.068013027 1.5220001
0.56761181 0.18823548 1.22
-0.31623822 0.22642295 1.125
-0.41051146 0.074259959 1.488
0.10440897 0.2166034 1.1670001
-0.12007977 0.18823548 1.22
-0.41715336 0.074060336 1.4840001
-0.32398254 0.19718172 1.197
0.20734759 0.18425313 1.2360001
0.34070209 0.061134908 1.549
-0.33607355 0.24302331 1.0940001
-0.33352312 0.045401029 1.5640001
0.23878196 0.143806 1.34
-0.40094495 0.21925943 1.149
0.13108979 0.20810015 1.1880001
-0.39361694 0.22702675 1.128
-0.22673443 -0.0126103 1.6800001
0.073969588 0.16970296 1.2720001
-0.34134883 0.060227159 1.526
0.43136582 0.14967445 1.33
-0.39627662 0.045110736 1.554
-0.40464762 0.045139767 1.5550001
-0.36986524 0.19205083 1.2040001
-0.49292621 0.15960278 1.245
0.068203464 0.029837335 1.605
-0.42521018 0.045604229 1.5710001
-0.05871629 0.16943613 1.2700001
-0.27251545 0.24805111 1.0910001
-0.37646797 -0.01263282 1.6830001
0.27875921 0.18455125 1.238
-0.4498086 0.045604229 1.5710001
0.39049959 0.19833484 1.2040001
0.47385374 0.095788583 1.4610001
-0.45877227 -0.0038762228 1.6950001
-0.20701437 0.17909676 1.245
-0.48564684 0.16583394 1.243
-0.45596734 0.045401029 1.5640001
0.41493374 0.23904876 1.102
0.42067093 0.053974949 1.5760001
-0.39815301 0.021767933 1.628
0.55800563 0.10959525 1.442
-0.4731991 0.045488112 1.567
0.55047947 0.10959525 1.442
-0.48541641 0.24346758 1.0960001
-0.48107055 0.045459084 1.5660001
0.25394785 0.15426095 1.3100001
-0.45142996 0.11894256 1.376
0.069011532 0.24191259 1.0890001
-0.24409406 0.088585638 1.4680001
-0.34938824 0.21474732 1.1570001
-0.49424258 0.045923542 1.582
0.41506553 0.061371714 1.5550001
-0.31522867 0.16836882 1.2620001
-0.16234136 0.11557824 1.4230001
0.16010639 0.068057716 1.5230001
0.57259786 0.038333323 1.6100001
0.15127355 0.1541432 1.309
-0.15405808 0.24413401 1.0990001
-0.47646087 0.17135108 1.2360001
-0.042623773 0.0049293935 1.6810001
0.28191158 0.18010373 1.2520001
-0.046962708 0.15449646 1.312
0.56419486 0.038333323 1.6100001
-0.24857104 0.174401 1.258
0.51861197 0.038071416 1.5990001
0.077200674 0.021634223 1.618
-0.2627317 0.060463965 1.5320001
-0.33747837 0.013564414 1.664
0.51090461 0.038119037 1.6010001
0.49820527 0.03842856 1.6140001
0.48817059 0.0048854076 1.6660001
-0.24625567 0.081640363 1.4810001
-0.035253521 0.22002272 1.153
-0.16052108 0.23948263 1.1040001
0.48026186 0.068370521 1.5300001
-0.15257622 0.20599812 1.176
0.20193313 0.09703429 1.48
-0.12159872 0.11946121 1.3820001
0.010095303 -0.0038739361 1.6940001
0.095230289 0.19849956 1.205
0.43134785 0.038476177 1.6160001
-0.36619997 0.17751439 1.2340001
0.18772003 0.23105574 1.1190001
0.19240808 0.046242863 1.5930001
0.55923724 0.19800538 1.202
-0.02343563 0.045604229 1.5710001
-0.040483858 0.22763054 1.131
-0.46127364 0.013629628 1.6720001
0.45182225 0.0387857 1.6290001
-0.0072651035 0.021687707 1.6220001
-0.0062125148 0.12713253 1.3870001
0.57038862 0.096640915 1.4740001
0.46307051 0.13905834 1.3620001
0.44332007 0.0387857 1.6290001
-0.26587722 0.19412446 1.217
0.35081977 0.037976176 1.595
0.33081812 0.037595227 1.5790001
-0.20318474 0.13773106 1.3490001
0.32155541 0.037476178 1.5740001
0.58443987 0.10891124 1.4330001
0.12378402 0.18470034 1.2390001
-0.294054 0.0048795422 1.664
-0.37614211 0.052673522 1.5380001
0.36908197 0.038142845 1.6020001
0.50631177 0.16549975 1.291
-0.19879751 0.09657535 1.473
-0.22071648 0.06783428 1.5180001
0.43140444 0.19348642 1.2130001
0.13429222 0.04627189 1.5940001
-0.39082325 0.22290382 1.1370001
-0.36295789 0.13691427 1.3410001
0.42547289 0.06854926 1.534
-0.042882107 0.19734646 1.1980001
-0.14558896 0.053495474 1.562
-0.3204934 0.0048854076 1.6660001
0.33865869 0.19476251 1.2210001
0.23236392 0.037666652 1.582
-0.42358556 0.14764878 1.312
0.52243263 0.21567537 1.1620001
0.42218044 0.24235687 1.0910001
0.0011790945 0.037928559 1.5930001
0.17145996 0.03883332 1.631
-0.36353302 0.0048795422 1.664
-0.39645627 0.16930272 1.2690001
0.1627475 0.0387857 1.6290001
-0.18041196 0.16498698 1.2870001
-0.28809845 0.20634848 1.1780001
-0.45725292 0.0380238 1.5970001
-0.033698391 0.14956191 1.3290001
0.3239859 0.088887356 1.473
0.16816568 0.068102397 1.524
-0.10126155 0.11371015 1.4000001
0.04514014 0.1931674 1.2110001
-0.31837729 0.022128949 1.6550001
0.30997148 0.013034555 1.5990001
-0.28585979 0.2256179 1.1210001
-0.17913221 0.18365684 1.2320001
0.109608 0.038047604 1.598
0.042723782 0.037904751 1.5920001
-0.12696959 0.15863869 1.2900001
-0.46733272 0.20407128 1.1650001
0.19711864 0.038857132 1.6320001
0.16419326 0.08979252 1.488
-0.26648748 0.1642178 1.281
-0.031937163 0.037761893 1.5860001
0.34968087 0.23583759 1.1140001
-0.076841399 0.21849613 1.1450001
-0.16821635 0.030171961 1.623
0.12252463 -0.0037961828 1.6600001
-0.30523726 0.18854406 1.222
0.20339939 -0.0038510675 1.6840001
-0.22306642 0.081640363 1.4810001
0.17819951 0.13156217 1.358
-0.13160147 0.03785713 1.59
-0.35996613 -0.021480486 1.6880001
-0.20172632 0.038571417 1.6200001
-0.020019487 0.14402063 1.342
0.37276816 0.0047446513 1.618
0.4518908 0.24302331 1.0940001
-0.28875184 0.074908733 1.501
-0.36877629 -0.021480486 1.6880001
0.29869995 0.19364594 1.2140001
0.31118354 0.12667423 1.3820001
-0.03424453 0.23126221 1.12
-0.24249625 0.038333323 1.6100001
-0.099459037 0.029874517 1.6070001
0.20976108 0.23541419 1.1120001
-0.0050389897 0.22642295 1.125
0.10429972 0.18455125 1.238
-0.19303247 0.038523797 1.618
-0.16447571 0.24827845 1.092
0.15699124 0.0048619481 1.6580001
0.35202277 0.12110358 1.401
-0.25865808 0.038238082 1.6060001
0.12999554 0.060898107 1.5430001
-0.22680774 0.20652363 1.179
-0.5032891 0.19405186 1.1780001
-0.44290048 -0.012775435 1.702
0.38468724 0.068415202 1.531
-0.28933963 0.052947506 1.5460001
-0.28256753 0.038071416 1.5990001
0.43600312 0.17509417 1.263
0.13189556 0.242579 1.092
-0.29036736 0.037999988 1.5960001
0.13393009 0.16996978 1.274
0.19426344 -0.0038442069 1.6810001
-0.18354571 -0.012655338 1.6860001
-0.29963309 0.038119037 1.6010001
-0.35915652 0.037357133 1.5690001
-0.12206205 0.045691315 1.5740001
0.41207519 0.0048091644 1.6400001
0.12618177 0.17509417 1.263
-0.19926865 0.1488867 1.3230001
-0.43306896 0.20512228 1.171
-0.27186477 -0.0038602147 1.6880001
0.092927195 0.038047604 1.598
-0.40241131 0.067744903 1.516
-0.36851618 0.037476178 1.5740001
-0.26014367 0.12015273 1.3900001
-0.025240665 -0.0038693622 1.692
0.092171222 0.046010632 1.585
-0.34720343 0.0048942044 1.669
-0.33206898 0.17343058 1.251
-0.40389031 0.088344261 1.4640001
-0.40724182 0.0380238 1.5970001
-0.22998987 0.10853123 1.4280001
0.56200558 0.03026491 1.628
-0.4411343 0.038071416 1.5990001
0.55248868 0.021727821 1.6250001
-0.38738593 0.22682549 1.1270001
0.22386409 0.10815122 1.4230001
0.20516676 0.18869837 1.223
0.009499358 0.037952371 1.5940001
0.03618731 -0.0038281986 1.674
-0.17505693 -0.012677857 1.6890001
0.47473034 0.24302331 1.0940001
-0.48006091 0.15740894 1.2800001
-0.45004213 0.038119037 1.6010001
0.32765329 0.18010373 1.2520001
-0.27413151 0.10830322 1.4250001
0.4109351 0.075357892 1.5100001
0.23714249 0.09565746 1.4590001
0.52695757 0.038071416 1.5990001
0.4037616 0.0048120967 1.641
-0.28525448 0.21792364 1.1420001
0.14349078 0.20810015 1.1880001
0.2361614 0.21456172 1.156
-0.2549645 0.24759638 1.0890001
-0.35889989 -0.01263282 1.6830001
0.06134925 0.21511854 1.159
0.5494287 0.030041829 1.6160001
0.080525525 0.2117752 1.174
0.40413153 0.089611486 1.485
-0.36787549 0.052639272 1.5370001
0.3389011 0.088766672 1.4710001
-0.44453195 0.20477195 1.169
0.52217972 0.029930288 1.6100001
-0.28211084 0.12023917 1.391
-0.17712767 0.20599812 1.176
-0.28466558 0.15343666 1.3030001
0.17545472 -0.0038167643 1.669
0.074576423 0.061687455 1.5630001
0.08672677 0.21195561 1.1750001
0.51505309 0.030004648 1.6140001
-0.40646824 0.0048736776 1.6620001
-0.29087314 0.022008609 1.646
0.10842819 0.13291849 1.3720001
0.36058876 0.14911176 1.325
-0.41687813 0.029781567 1.6020001
0.37125579 0.17564872 1.2670001
-0.10444405 0.10974727 1.4440001
-0.023644477 0.037738081 1.585
0.3078391 0.029521301 1.5880001
-0.29564446 -0.003825912 1.6730001
-0.50644255 0.242579 1.092
-0.50499439 0.13558699 1.3280001
0.32318974 0.029409761 1.582
0.28418112 0.22763054 1.131
-0.35344577 0.1075432 1.4150001
0.2854692 0.029781567 1.6020001
-0.12911899 0.0048824749 1.6650001
0.37966195 0.083294116 1.511
0.26298597 0.030079009 1.618
-0.011899909 0.18291149 1.2270001
0.22471884 0.022021981 1.6470001
-0.45993632 0.087378748 1.4480001
0.11144674 0.21231638 1.177
0.57469147 0.13854785 1.3570001
-0.364764 0.060148224 1.524
-0.024047254 0.021553999 1.6120001
0.32217625 0.19882903 1.207
-0.37778014 0.23043628 1.1160001
0.15765405 -0.0038076171 1.6650001
-0.28008273 0.12658258 1.381
-0.28855833 0.15863869 1.2900001
0.24411911 0.029837335 1.605
-0.1881243 0.013442139 1.649
0.02676153 0.021821417 1.6320001
0.23750474 0.03006042 1.6170001
0.19796413 0.030469405 1.6390001
0.15082531 0.20342918 1.197
0.5280205 0.23499076 1.11
0.11070546 0.030004648 1.6140001
0.17219584 0.030450815 1.6380001
0.57546729 0.12196799 1.411
0.30899706 0.10185671 1.439
-0.041338041 0.13803735 1.3520001
-0.38548094 -0.012640326 1.6840001
0.034738954 0.029874517 1.6070001
0.22816536 0.2061733 1.177
0.017964205 0.029874517 1.6070001
0.18536238 0.17495555 1.2620001
-0.14370127 0.14854908 1.3200001
0.54165626 0.083955623 1.5230001
-0.39355049 0.17823365 1.2390001
0.21759064 0.060621832 1.536
-0.40449551 -0.012685362 1.6900001
-0.057557952 0.029893106 1.608
0.44259506 0.17509417 1.263
0.32064062 0.10822722 1.424
-0.063524552 0.13311224 1.3740001
-0.06595055 0.029893106 1.608
0.42565659 0.089249425 1.4790001
-0.28145257 0.052981753 1.5470001
-0.12415586 0.029762976 1.6010001
0.037184753 0.21530415 1.1600001
0.39385366 0.12274595 1.4200001
-0.47936702 0.19061522 1.1950001
-0.14130792 0.029855926 1.6060001
-0.3225053 0.21087326 1.169
-0.46781918 0.11054251 1.3610001
0.51889926 0.061174378 1.5500001
0.12268505 0.18946981 1.228
-0.13834441 0.23520248 1.1110001
-0.34889558 0.029688615 1.5970001
0.16487548 0.24645959 1.0840001
-0.050856628 0.23861493 1.1
0.061489351 0.10242298 1.447
0.15341841 0.24623221 1.0830001
0.053974334 0.10249376 1.4480001
-0.18481587 0.030116191 1.6200001
-0.41409791 0.067074604 1.501
0.1200889 0.021754563 1.6270001
0.50067466 0.030153371 1.6220001
0.48631033 0.1848494 1.24
0.013738649 0.18320961 1.2290001
-0.3147561 0.15826976 1.2870001
0.063486591 0.090154588 1.4940001
-0.16299984 0.1541432 1.309
-0.16023566 0.061016511 1.5460001
0.43278989 0.08912874 1.4770001
-0.10286304 -0.0038007565 1.6620001
-0.21147896 0.030302092 1.6300001
0.49278694 0.096509784 1.4720001
0.28483745 0.075357892 1.5100001
0.32032967 0.045517143 1.5680001
0.50718313 0.14455722 1.3470001
0.058447346 0.053700965 1.5680001
0.26224977 0.01358887 1.6670001
-0.27765185 0.0300976 1.6190001
-0.042902689 -0.012700374 1.692
0.38038617 0.20257944 1.192
-0.29551572 0.04583646 1.5790001
0.39543456 0.083294116 1.511
-0.26991102 0.13233721 1.3660001
0.017640023 0.045807429 1.5780001
0.33015037 0.24013337 1.107
-0.30389088 0.12023917 1.391
0.49212199 0.16072927 1.307
0.146101 0.030357864 1.6330001
-0.13176687 0.21437612 1.1550001
-0.4285064 0.10044105 1.419
0.30588812 0.23208815 1.1240001
-0.32503927 0.030580947 1.6450001
0.029117651 0.24668694 1.085
-0.077579476 -0.012595288 1.6780001
-0.40895292 0.1541432 1.309
-0.051973972 0.095198505 1.452
0.41584748 0.046126749 1.5890001
-0.35271564 0.013482898 1.654
0.026632478 0.18365684 1.2320001
0.28903311 0.0047563808 1.6220001
0.45992929 0.082136489 1.4900001
0.4200528 0.21604657 1.164
-0.069026604 -0.01263282 1.6830001
0.078262031 0.22368799 1.141
0.29254657 0.029651433 1.595
-0.093393706 0.07530798 1.5090001
-0.40015557 0.029781567 1.6020001
-0.29023337 0.13185281 1.3610001
0.21389012 0.17010321 1.2750001
-0.40800682 0.029744385 1.6
-0.055195499 0.060858637 1.5420001
-0.11377458 0.045662288 1.5730001
0.31342834 0.10830322 1.4250001
0.18378645 0.13752687 1.3470001
0.074215181 0.24600483 1.082
-0.35289314 0.22940385 1.1110001
0.39591923 0.004820894 1.6440001
-0.2424313 0.095591888 1.4580001
-0.4655562 0.03022773 1.626
-0.48739207 0.030004648 1.6140001
-0.18865146 0.075607419 1.5150001
0.19683315 0.1931674 1.2110001
0.47343144 0.021995239 1.6450001
-0.078452051 0.21087326 1.169
0.32921025 0.13243409 1.3670001
-0.074156985 0.23393226 1.105
-0.49397281 0.029893106 1.608
0.5905022 0.029986057 1.613
0.11647923 0.23456736 1.108
-0.098721974 0.22581917 1.1220001
0.54400736 0.021727821 1.6250001
0.34964159 0.081805743 1.4840001
-0.43230268 0.13671008 1.3390001
-0.12787691 0.060977042 1.5450001
0.39967868 0.13214345 1.3640001
-0.44255614 0.20054005 1.1800001
0.18047558 0.16996978 1.274
0.53756201 0.076555632 1.534
0.55715084 0.18900694 1.225
0.22898123 0.16473059 1.2850001
-0.16961104 0.053358484 1.5580001
0.13367476 0.14359136 1.3380001
-0.38558713 0.029948877 1.6110001
0.28522065 0.18455125 1.238
-0.0062662638 0.12093069 1.399
0.51792514 0.021701077 1.623
-0.21391313 0.046010632 1.585
0.45651349 0.17938447 1.2470001
0.1454747 0.038714271 1.626
0.45359427 0.061095443 1.5480001
0.55441093 0.038238082 1.6060001
-0.26898384 0.15900762 1.2930001
0.054010343 0.16956954 1.271
0.26916242 0.013499202 1.6560001
0.48084506 0.021941755 1.641
-0.075826928 0.14359136 1.3380001
0.13025069 0.18470034 1.2390001
-0.49870333 0.21487042 1.126
0.4665412 0.022075465 1.651
0.27452114 0.13359664 1.3790001
0.45709214 0.022035353 1.6480001
-0.32997906 0.013613326 1.6700001
0.092069119 0.2162322 1.1650001
-0.43147802 0.073860712 1.48
0.059341948 0.037904751 1.5920001
0.27243757 0.045720343 1.575
0.42542395 0.19364594 1.2140001
0.32699525 0.14956191 1.3290001
-0.37811497 0.11346648 1.3970001
-0.45229095 0.029911697 1.6090001
0.5324291 0.053632468 1.5660001
0.093148239 0.17495555 1.2620001
-0.23361744 0.14877415 1.322
-0.22937629 0.15962251 1.2980001
0.31652543 0.021259835 1.59
0.22654952 0.19784065 1.2010001
0.28653836 0.021500513 1.608
0.31702444 0.22408009 1.143
0.52034301 0.1854457 1.2440001
-0.057009451 0.23456736 1.108
0.47774845 0.013531809 1.6600001
-0.12324188 0.08985287 1.4890001
0.29744896 0.095460765 1.4560001
0.19953431 0.022088837 1.6520001
-0.41557702 0.0380238 1.5970001
0.38036552 0.12317816 1.4250001
0.56868666 0.11622801 1.4310001
-0.19199251 0.18365684 1.2320001
0.1469062 0.021955127 1.6420001
0.38807514 0.11582191 1.4260001
0.33291346 0.11476603 1.4130001
-0.41001767 0.20582296 1.1750001
0.13663352 0.10213985 1.4430001
0.32626987 0.095001824 1.4490001
-0.12275331 0.14821146 1.317
0.11125419 0.021687707 1.6220001
0.066333711 0.061608519 1.5610001
-0.12972553 0.14832401 1.3180001
0.3148056 0.22843562 1.1350001
0.10278852 0.021687707 1.6220001
0.42908385 0.23208815 1.1240001
-0.31050444 0.060424495 1.531
-0.33136219 -0.012587782 1.677
-0.027748682 0.12630759 1.378
-0.33525428 0.16850223 1.263
-0.076562345 0.013499202 1.6560001
0.43396631 0.242579 1.092
0.54176533 0.19849956 1.205
0.018299567 0.021888271 1.6370001
-0.46789479 -0.0038785096 1.6960001
0.51542938 0.075657323 1.516
-0.32840213 0.16836882 1.2620001
0.050968751 0.03785713 1.59
-0.11206818 0.13117465 1.3540001
-0.02994361 0.081971116 1.4870001
0.084480934 0.037999988 1.5960001
0.25446317 0.10853123 1.4280001
-0.015391324 0.037785705 1.5870001
-0.30764309 0.14787385 1.314
-0.074851714 0.021647595 1.6190001
-0.083250262 0.021634223 1.618
0.27785796 0.088887356 1.473
-0.12508644 0.021567369 1.613
-0.38816589 0.045110736 1.554
0.46644554 0.053563971 1.5640001
-0.34542203 0.067432098 1.5090001
0.11166839 0.11476603 1.4130001
-0.48235434 0.20955034 1.1290001
-0.45269123 0.087439097 1.4490001
-0.3981573 0.037952371 1.5940001
-0.35073996 -0.012655338 1.6860001
-0.1916609 -0.0126103 1.6800001
0.33533034 0.19915849 1.2090001
-0.42038417 0.18231519 1.223
-0.20857504 -0.01257277 1.6750001
0.15221134 0.19899376 1.2080001
-0.34986585 0.12575763 1.3720001
-0.29982796 0.022035353 1.6480001
0.38491169 0.23604928 1.115
0.17171992 0.22722802 1.1290001
-0.2122833 0.095723018 1.46
-0.30936509 0.022102207 1.6530001
-0.068018347 0.23839802 1.0990001
0.57458156 0.068191774 1.526
-0.14686216 0.18350776 1.2310001
0.24011467 0.0049704472 1.6950001
0.31897318 0.2030893 1.1950001
-0.10013983 0.021634223 1.618
0.03190865 0.20206958 1.189
-0.090464808 0.13762896 1.348
-0.18922278 0.22309986 1.138
0.26926228 0.12731586 1.3890001
0.24082297 -0.0038876571 1.7
-0.47763786 0.1474237 1.3100001
0.18328294 0.013539961 1.6610001
0.48191637 0.12795748 1.396
0.50311971 0.20810015 1.1880001
0.099683322 0.053872202 1.5730001
-0.44489399 0.11911543 1.378
-0.053405765 0.074459583 1.4920001
0.11419266 0.19866431 1.2060001
-0.30642939 0.088887356 1.473
0.36355314 0.19444349 1.2190001
-0.15463002 0.013523656 1.659
-0.26479784 0.22172754 1.131
-0.33338538 0.20155975 1.1860001
0.552136 0.097493239 1.4870001
-0.47695813 0.021874901 1.636
0.25228232 0.21887778 1.1470001
0.13993686 -0.0037984697 1.6610001
-0.1808241 0.013539961 1.6610001
-0.49131778 0.021754563 1.6270001
0.12195701 0.16511518 1.2880001
-0.18867545 0.12084426 1.3980001
0.58397865 0.013385078 1.6420001
0.57225478 0.013311713 1.6330001
-0.15211345 0.021821417 1.6320001
0.19240041 0.18869837 1.223
-0.082748428 0.14348404 1.337
0.26411605 0.23146869 1.1210001
0.37325346 0.1897784 1.23
0.53684419 0.013279106 1.6290001
0.091843009 0.14369868 1.3390001
-0.2810989 0.18946981 1.228
0.50530481 0.01334432 1.6370001
-0.40580729 0.15555628 1.3210001
0.45903367 0.01349105 1.6550001
0.20427455 0.10206906 1.442
-0.10689069 0.2469143 1.0860001
0.42788586 0.013328017 1.6350001
-0.054302573 0.14899923 1.3240001
0.47636133 0.21678901 1.1680001
0.33279976 0.08147499 1.478
-0.39649677 0.16146713 1.3130001
0.013615683 0.1879269 1.2180001
-0.26358807 0.14316209 1.3340001
0.43602514 0.095854141 1.462
-0.13412119 0.18365684 1.2320001
-0.15526068 0.082577489 1.498
0.50502419 0.11533458 1.4200001
0.36297241 0.013140528 1.6120001
-0.41142717 0.23796415 1.097
0.44158047 0.075208172 1.5070001
-0.45063329 0.20477195 1.169
-0.098344997 0.037833322 1.5890001
-0.18413137 0.03842856 1.6140001
0.3029463 0.0047094622 1.6060001
-0.24163771 0.1217951 1.409
0.27139735 0.20634848 1.1780001
0.2496047 0.10213985 1.4430001
0.24045679 0.15437871 1.3110001
0.2951144 0.013116072 1.6090001
-0.47742182 0.10948662 1.348
0.018456068 0.013458443 1.651
-0.41131708 0.16332044 1.274
-0.10704792 0.089309767 1.48
0.44511724 0.21641779 1.166
0.28108639 0.0132465 1.6250001
-0.3027389 0.0048795422 1.664
-0.30673099 0.11403503 1.404
0.41343153 0.19396496 1.2160001
0.23670505 0.11460358 1.411
0.16905871 0.21964107 1.151
-0.15698744 0.19300789 1.21
0.46495432 0.061529581 1.559
0.43526626 0.2205952 1.156
0.10870343 0.19380544 1.215
0.51801652 0.11492847 1.4150001
-0.15783806 0.1488867 1.3230001
-0.20905887 0.13446854 1.388
0.2197969 0.013654084 1.6750001
-0.13075624 0.24346758 1.0960001
0.19206771 0.013548112 1.6620001
0.11085066 0.18470034 1.2390001
-0.13717251 0.053392727 1.559
-0.41335008 0.24714164 1.087
0.12067938 0.013328017 1.6350001
-0.11306139 0.12520768 1.3660001
0.015370742 0.13320912 1.3750001
0.082583256 0.19833484 1.2040001
0.23579256 0.17981602 1.25
0.38372257 0.24324542 1.095
-0.041674372 0.13204657 1.363
0.5680775 0.21830529 1.1440001
0.14744301 0.013433988 1.6480001
0.54614121 0.18962412 1.2290001
-0.17797084 0.053426977 1.5600001
-0.13416728 0.021674337 1.6210001
0.0098330872 0.013450292 1.6500001
-0.15924475 0.22270776 1.136
0.0950673 0.16511518 1.2880001
0.0012212844 0.013450292 1.6500001
0.44983181 0.053529724 1.5630001
-0.14055133 0.18365684 1.2320001
-0.48813528 0.087016679 1.442
-0.38394862 0.23064277 1.1170001
0.47165903 0.068281151 1.5280001
-0.21110937 0.22702675 1.128
0.20680685 0.11435992 1.4080001
0.5229376 0.17551008 1.266
0.17019895 0.23105574 1.1190001
0.17588983 0.04627189 1.5940001
-0.46956468 0.021928385 1.6400001
-0.25853536 0.013523656 1.659
-0.013015221 0.14402063 1.342
0.14414716 0.22427614 1.1440001
0.17688729 0.13762896 1.348
-0.4743343 0.030246321 1.6270001
-0.20185067 0.2061733 1.177
-0.41629881 0.19652282 1.1930001
0.36942166 0.12685756 1.3840001
-0.20496389 0.013417684 1.646
-0.3117981 0.0048854076 1.6660001
-0.0075920778 -0.0038762228 1.6950001
0.071724102 0.13834365 1.355
-0.049257845 0.19784065 1.2010001
-0.40756929 0.19205083 1.2040001
-0.051272731 0.23477907 1.1090001
-0.1527732 0.10433412 1.4740001
-0.3832714 0.075008549 1.503
-0.12733537 0.013385078 1.6420001
-0.016060513 0.013499202 1.6560001
0.42448372 0.030153371 1.6220001
-0.14517936 0.013450292 1.6500001
-0.17215487 0.013539961 1.6610001
0.24760175 0.19332691 1.212
0.25142777 0.15949951 1.2970001
0.29172879 0.10853123 1.4280001
-0.45394561 0.12484104 1.3620001
-0.21355481 0.013417684 1.646
-0.21850181 0.038547605 1.6190001
-0.051007517 0.10830322 1.4250001
0.25448731 0.067789592 1.5170001
0.13613464 0.21249677 1.1780001
-0.28312993 0.13185281 1.3610001
-0.41938844 0.15296564 1.299
0.31628767 0.10178594 1.4380001
-0.1820402 0.17356922 1.2520001
-0.40282607 0.053016003 1.5480001
-0.2410724 0.013515505 1.6580001
-0.24987656 0.013523656 1.659
-0.21431878 0.20634848 1.1780001
0.19492495 0.12612428 1.376
-0.16330278 0.19300789 1.21
0.12200796 0.0048472858 1.6530001
-0.47760943 0.093952797 1.4330001
-0.27568662 0.013515505 1.6580001
-0.17690746 0.16836882 1.2620001
-0.50195223 0.14165963 1.3200001
0.23766418 0.18916124 1.2260001
0.39831331 0.075956762 1.5220001
0.07542941 0.10830322 1.4250001
0.35068321 0.143806 1.34
0.051417533 0.029818747 1.6040001
-0.49677369 0.0049088662 1.674
-0.43873692 0.0049440558 1.6860001
0.28417 0.12749918 1.391
0.54693753 0.097952187 1.4940001
-0.025136242 0.0049411231 1.6850001
0.50757086 0.03006042 1.6170001
0.4215692 0.19817011 1.2030001
0.4005937 0.096509784 1.4720001
-0.38373443 0.013360622 1.6390001
-0.31991628 0.013556263 1.6630001
0.54054272 0.21195561 1.1750001
-0.20633364 0.0048590153 1.6570001
-0.35165882 0.2013898 1.1850001
-0.34491509 0.013515505 1.6580001
0.35467029 0.21925943 1.149
0.23343611 0.15426095 1.3100001
0.18848522 0.03883332 1.631
0.45175433 0.18395498 1.2340001
0.16333464 0.22002272 1.153
0.24424244 0.11468481 1.4120001
0.23742314 0.013662236 1.6760001
-0.31174782 0.19734646 1.1980001
0.22042784 0.1844022 1.2370001
-0.44469786 0.01339323 1.6430001
-0.13747275 0.23948263 1.1040001
0.082787082 0.061726924 1.5640001
0.14179325 0.16473059 1.2850001
0.10254316 0.082412116 1.4950001
0.38262662 0.0047622458 1.6240001
0.0911998 0.22021356 1.154
-0.11862066 0.013368775 1.6400001
-0.4236159 0.16293585 1.271
0.1372409 0.030283501 1.6290001
0.1163082 0.15986845 1.3000001
0.43535167 0.021808045 1.631
0.064508848 0.13803735 1.3520001
0.49071869 0.20810015 1.1880001
-0.33843589 0.10746719 1.414
0.231647 0.060108762 1.5230001
0.082052737 0.11460358 1.411
-0.2809177 0.074908733 1.501
0.37292805 0.11574069 1.4250001
-0.4564282 0.14719863 1.3080001
-0.29529122 0.15863869 1.2900001
-0.38748047 0.0048531508 1.6550001
-0.13990012 0.03785713 1.59
-0.04094056 0.14369868 1.3390001
-0.31110519 0.18823548 1.22
0.32488611 0.16575615 1.2930001
0.53717375 0.0047798404 1.6300001
-0.47295502 0.22857791 1.107
0.27562469 0.0048179617 1.6430001
-0.032151662 0.16916929 1.268
-0.35916862 0.14241086 1.327
0.50561351 0.0048032999 1.6380001
-0.030326018 0.197017 1.1960001
-0.15446956 0.13117465 1.3540001
0.54065961 0.03002324 1.6150001
0.36380619 0.21511854 1.159
0.087384604 0.16996978 1.274
0.43117017 0.17967218 1.2490001
0.11399781 -0.0038007565 1.6620001
0.49558419 0.068281151 1.5280001
-0.18851468 0.10284768 1.4530001
-0.10838329 0.021594111 1.6150001
-0.46723482 0.21976708 1.1210001
-0.46506932 0.11695442 1.353
-0.30110151 0.01349105 1.6550001
-0.42547822 0.24759638 1.0890001
-0.10236792 0.0048502181 1.654
0.31952071 0.21983191 1.1520001
-0.10556465 0.045662288 1.5730001
0.0012471904 0.0049411231 1.6850001
-0.42810556 0.14230354 1.3260001
-0.33436701 0.11346648 1.3970001
0.4923923 0.0048414208 1.651
-0.09071397 0.23774725 1.0960001
-0.30175596 0.13773106 1.3490001
0.31353936 0.037499987 1.575
-0.12416709 0.19734646 1.1980001
0.51064032 0.23499076 1.11
0.4079884 0.18455125 1.238
0.3568714 0.061134908 1.549
0.25689545 0.0049528531 1.6890001
0.32537937 0.19444349 1.2190001
0.54295325 0.10959525 1.442
0.26880506 0.053221487 1.554
-0.19625367 0.013409534 1.6450001
0.031076722 0.21493295 1.1580001
0.19357005 0.004911799 1.6750001
0.36049554 0.038119037 1.6010001
0.24822696 0.0049557853 1.6900001
0.183945 0.0048883394 1.6670001
-0.32582963 0.022048723 1.649
-0.060385738 -0.012662844 1.687
0.027368255 0.0048942044 1.669
-0.12435141 0.24782373 1.09
0.5145539 0.17050345 1.2780001
-0.32215083 0.23393226 1.105
0.21782857 0.022195805 1.6600001
-0.43044722 -0.01267035 1.6880001
0.42271712 0.12768249 1.393
0.50489086 0.18039145 1.2540001
0.40590304 0.13185281 1.3610001
-0.43450224 0.18653829 1.2090001
-0.35847256 0.17356922 1.2520001
0.037034433 0.12649092 1.3800001
0.18420935 0.04627189 1.5940001
0.4633103 0.22863688 1.136
0.25421289 0.12704088 1.386
-0.018139863 0.18761833 1.2160001
-0.47078636 0.094083928 1.4350001
0.13817631 0.22427614 1.1440001
0.22239955 0.20652363 1.179
-0.10263259 0.17837749 1.24
0.48448563 0.22427614 1.1440001
0.51303184 0.1036263 1.4640001
0.48940989 0.021941755 1.641
0.32625413 0.0046830708 1.5970001
-0.44925463 0.094280615 1.4380001
-0.11120192 0.0048590153 1.6570001
-0.21022555 0.13773106 1.3490001
-0.18960738 0.0048736776 1.6620001
0.49330837 0.11606557 1.429
-0.1379274 0.19284838 1.2090001
-0.38142169 0.060266629 1.5270001
-0.1764695 0.03013478 1.6210001
0.20058097 0.17010321 1.2750001
0.58569217 0.021701077 1.623
-0.48479134 0.1902962 1.1930001
0.36119169 0.24346758 1.0960001
-0.063869171 0.22682549 1.1270001
0.57864392 0.021754563 1.6270001
0.41850245 0.089370109 1.4810001
-0.34547397 0.2013898 1.1850001
0.44006085 0.13359664 1.3790001
-0.38023287 0.14251818 1.3280001
0.49267504 0.19899376 1.2080001
-0.2318023 0.060740236 1.539
-0.30502856 0.075058453 1.5040001
-0.35587341 0.16890247 1.266
0.2050065 0.038738083 1.6270001
0.4558236 0.22486427 1.1470001
-0.13871954 -0.0038327726 1.6760001
-0.27057633 0.0049264613 1.6800001
0.41832638 0.021808045 1.631
0.39229414 0.090456314 1.4990001
-0.27734938 0.0048912722 1.6680001
0.15568498 0.23839802 1.0990001
-0.055409949 0.13793525 1.3510001
0.36036089 0.12878242 1.4050001
0.38145956 0.23969954 1.105
0.065954417 0.17924061 1.2460001
0.068619587 0.20669881 1.1800001
0.14790238 0.24645959 1.0840001
0.046352714 0.1023522 1.4460001
0.22134794 0.075208172 1.5070001
-0.1031725 -0.012512721 1.6670001
-0.25234139 0.19348642 1.2130001
0.15558636 0.11452236 1.4100001
-0.080868021 0.19849956 1.205
-0.10974503 0.23022978 1.115
0.0010813918 0.095788583 1.4610001
-0.095559888 0.060937572 1.544
-0.39161974 0.20582296 1.1750001
0.3436172 0.15461423 1.3130001
0.068039656 0.10837922 1.4260001
0.51574188 0.19024128 1.233
-0.26737323 0.21792364 1.1420001
-0.08546114 0.075258076 1.508
0.49122006 0.22783183 1.1320001
-0.35548788 0.0048883394 1.6670001
-0.17878449 0.2017297 1.187
-0.40569225 -0.021569563 1.6950001
-0.29752454 0.096181966 1.4670001
0.36605674 0.075856954 1.5200001
0.17219068 0.089913219 1.4900001
-0.4058277 0.17794594 1.2370001
0.41006505 0.021821417 1.6320001
-0.25220099 0.15437871 1.3110001
0.18929419 0.030450815 1.6380001
-0.44700575 0.0049381908 1.6840001
0.35621732 0.045923542 1.582
-0.42463449 -0.021633189 1.7
0.4651913 0.16085225 1.3080001
0.097114161 -0.0038190514 1.6700001
-0.46394244 0.09421505 1.437
0.23181379 -0.0038853702 1.6990001
0.20639254 0.030450815 1.6380001
0.25665116 0.18900694 1.225
0.13825189 0.021941755 1.641
0.21774854 0.15962251 1.2980001
0.18074501 0.030450815 1.6380001
-0.45606565 0.0049411231 1.6850001
-0.40914786 0.013352471 1.6380001
0.37385091 0.20240951 1.1910001
0.14776155 0.089249425 1.4790001
-0.46486008 0.0049411231 1.6850001
0.16729616 0.22329591 1.1390001
0.50271958 0.061174378 1.5500001
-0.37826312 0.24645959 1.0840001
0.26026785 0.16996978 1.274
-0.15588044 0.23541419 1.1120001
-0.36556596 0.029688615 1.5970001
0.35250592 0.23188166 1.123
-0.071467623 0.12006629 1.3890001
-0.3306118 0.08147499 1.478
0.23262399 0.19767591 1.2
0.53788179 0.1217951 1.409
0.57816851 0.10913925 1.4360001
0.1171365 0.046068691 1.5870001
-0.098450951 0.096181966 1.4670001
-0.095378451 0.24645959 1.0840001
-0.3086485 0.23818108 1.098
-0.20007136 -0.012587782 1.677
-0.34928375 -0.0038396332 1.6790001
-0.26325911 0.10242298 1.447
0.2486821 0.021861531 1.6350001
-0.50003207 0.20955034 1.1290001
-0.17244384 0.20155975 1.1860001
0.0092490613 0.061253313 1.552
0.43768904 0.17967218 1.2490001
-0.050204929 0.013385078 1.6420001
-0.44104692 0.045546174 1.5690001
0.11895896 0.11468481 1.4120001
-0.17098983 0.20599812 1.176
-0.058703389 0.013368775 1.6400001
0.5684216 0.08985287 1.4890001
0.21811658 0.089611486 1.485
0.5344007 0.13379039 1.381
0.51821619 0.16036035 1.304
0.040406201 0.24645959 1.0840001
0.14878502 -0.0038030434 1.6630001
0.087635353 0.075208172 1.5070001
-0.3561089 0.23350886 1.103
0.17978118 0.20704913 1.182
0.070965596 -0.0038190514 1.6700001
-0.059992 0.0049147317 1.6760001
-0.21911708 0.075208172 1.5070001
-0.15649417 -0.0038396332 1.6790001
0.53597277 0.038119037 1.6010001
-0.47213098 0.10989273 1.353
-0.48016506 0.013425836 1.6470001
-0.14936754 0.17356922 1.2520001
0.28073856 0.22368799 1.141
-0.22160172 0.11549702 1.4220001
0.53414631 0.17037003 1.2770001
0.54534644 0.013279106 1.6290001
-0.3455717 0.081364736 1.4760001
0.28322941 0.14843653 1.319
-0.46240452 0.18127169 1.2160001
-0.22933486 0.021874901 1.636
-0.081949517 0.22211963 1.133
0.37664515 0.12685756 1.3840001
-0.17559859 0.038404748 1.613
-0.3317574 -0.021365957 1.6790001
-0.21900025 0.17037003 1.2770001
-0.25847641 0.23372056 1.1040001
-0.46500501 0.037976176 1.595
0.26108029 0.2017297 1.187
0.44637823 0.061213847 1.5510001
0.52940673 0.19460298 1.22
-0.010648818 0.23818108 1.098
-0.3291491 0.17837749 1.24
0.45729312 0.10891124 1.4330001
0.38417795 0.17551008 1.266
0.070285685 0.013482898 1.654
-0.33053762 0.053084496 1.5500001
0.23432279 0.21887778 1.1470001
0.13359222 0.2205952 1.156
-0.36777109 0.2256179 1.1210001
-0.04277591 -0.0038579279 1.687
-0.17502154 0.13773106 1.3490001
-0.43043321 0.14764878 1.312
-0.14676315 0.0048912722 1.6680001
0.28065264 0.15390769 1.307
-0.32355312 0.081640363 1.4810001
0.13557297 0.13854785 1.3570001
0.22136874 0.23541419 1.1120001
0.0067043775 0.22642295 1.125
0.21172291 0.18885265 1.2240001
0.21902277 0.1019275 1.4400001
0.52463341 0.19915849 1.2090001
-0.21537556 0.24213472 1.09
0.10619833 0.20792498 1.187
-0.48346636 0.038119037 1.6010001
-0.41677248 0.23774725 1.0960001
-0.094018586 -0.0037938959 1.659
-0.22066119 0.021861531 1.6350001
0.32137522 0.18024758 1.253
0.19974142 0.11452236 1.4100001
-0.30248964 0.1931674 1.2110001
-0.32299426 -0.021365957 1.6790001
0.43078709 0.24645959 1.0840001
0.0080512129 0.13793525 1.3510001
0.18195879 0.022048723 1.649
-0.42767382 0.19602862 1.1900001
-0.13004959 -0.0038350592 1.677
-0.20152372 0.12704088 1.386
0.076103263 0.037976176 1.595
0.04124777 0.068683326 1.5370001
-0.4600032 0.21601538 1.1320001
-0.073834583 0.0380238 1.5970001
0.4592419 0.19817011 1.2030001
-0.42821315 0.23774725 1.0960001
0.2156074 0.068013027 1.5220001
0.3693085 0.19412446 1.217
0.47049734 0.0048824749 1.6650001
0.49824765 0.13895623 1.3610001
0.2308865 0.06783428 1.5180001
-0.25735691 0.20634848 1.1780001
0.15172429 0.12603262 1.3750001
-0.12322528 0.037833322 1.5890001
-0.45027131 0.24302331 1.0940001
-0.33950651 0.0049088662 1.674
0.23695712 0.22763054 1.131
0.40379658 0.2392657 1.103
-0.3379935 0.067521475 1.511
0.2952978 0.0047211922 1.6100001
0.1962315 0.14337672 1.3360001
-0.15218788 0.14316209 1.3340001
0.15040015 0.13204657 1.363
0.089605361 0.19364594 1.2140001
0.35257936 0.013067162 1.603
-0.082684286 0.029874517 1.6070001
0.56827718 0.10256455 1.4490001
0.25522235 -0.0038373463 1.6780001
0.073813006 0.06913019 1.5470001
-0.44527254 0.030004648 1.6140001
-0.32898158 0.21925943 1.149
0.53705871 0.22722802 1.1290001
0.43689215 0.082191616 1.4910001
0.4332163 0.030171961 1.623
-0.49641097 0.18376105 1.1910001
-0.41621435 0.045517143 1.5680001
0.32208279 0.12084426 1.3980001
-0.35575184 0.22541663 1.12
0.074626729 0.24169044 1.0880001
-0.34736627 0.03785713 1.59
-0.16793644 0.21437612 1.1550001
-0.38387856 -0.0038350592 1.677
-0.034256227 0.13793525 1.3510001
-0.42764613 0.037619036 1.58
0.16475126 0.21586098 1.1630001
-0.27171254 0.22940385 1.1110001
-0.1649223 0.18854406 1.222
0.16031854 0.21195561 1.1750001
-0.3411957 0.13660797 1.3380001
-0.18703267 0.082797989 1.5020001
0.12382349 0.12685756 1.3840001
0.31093225 0.068013027 1.5220001
0.08286687 0.10830322 1.4250001
0.40561166 0.2027494 1.1930001
0.28284004 0.13783315 1.35
0.024773391 0.21868694 1.146
0.076172501 0.19800538 1.202
-0.19821432 0.1549675 1.3160001
-0.22014067 0.19300789 1.21
-0.26204029 0.021754563 1.6270001
0.43695325 0.0048003672 1.6370001
0.36439875 0.14369868 1.3390001
-0.18682873 0.053632468 1.5660001
0.20979461 0.013572567 1.6650001
-0.48502597 -0.0038739361 1.6940001
-0.33508554 0.074759014 1.498
0.066235349 0.22329591 1.1390001
0.27229774 0.18455125 1.238
0.30454358 0.045604229 1.5710001
0.42840928 0.0048003672 1.6370001
0.2414549 0.13834365 1.355
-0.034111954 -0.012715387 1.6940001
0.32327265 0.22427614 1.1440001
0.5268358 0.1854457 1.2440001
0.24907726 0.13864994 1.358
0.018447746 0.22642295 1.125
-0.39560083 0.24668694 1.085
-0.3923147 0.15567403 1.322
0.33479881 0.0046860026 1.598
0.4732402 0.10913925 1.4360001
-0.34898797 0.20599812 1.176
0.26248196 0.088887356 1.473
-0.13938169 -0.012640326 1.6840001
0.27572411 0.037952371 1.5940001
-0.086932369 0.2256179 1.1210001
-0.14852288 -0.01267035 1.6880001
-0.091071658 0.029874517 1.6070001
-0.46310288 -0.021773169 1.7110001
-0.3063997 0.24782373 1.09
-0.19923624 -0.0038190514 1.6700001
-0.19776273 0.24714164 1.087
0.54704827 0.21945027 1.1500001
-0.48522049 0.15691702 1.276
-0.29652804 -0.012595288 1.6780001
-0.17329496 0.0049030017 1.6720001
0.014141083 0.16876906 1.2650001
-0.30510405 -0.012587782 1.677
