# .PCD v0.7 - Point Cloud Data file format
VERSION 0.7
FIELDS x y z
SIZE 4 4 4
TYPE F F F
COUNT 1 1 1
WIDTH 1530
HEIGHT 1
VIEWPOINT 0 0 0 1 0 0 0
POINTS 1530
DATA ascii
-0.39328641 0.13773106 1.3490001
-0.18940341 0.20599812 1.176
0.16980131 0.15913059 1.294
-0.37792808 0.037595227 1.5790001
-0.41770059 0.13650587 1.337
-0.25153458 0.13722056 1.3440001
-0.42436114 0.13640378 1.3360001
-0.012840651 0.12135796 1.3240001
-0.43797892 0.13630167 1.335
0.3218399 0.13233721 1.3660001
0.35301679 0.004820894 1.6440001
-0.47352591 0.13650587 1.337
-0.26896679 0.20582296 1.1750001
0.39546469 0.14922431 1.3260001
-0.2423237 0.10739119 1.4130001
-0.48014474 0.13640378 1.3360001
-0.4881734 0.1347702 1.3200001
0.21355459 0.16983636 1.273
-0.49318758 0.1342597 1.3150001
0.18854372 0.21530415 1.1600001
0.39371076 0.13253096 1.368
0.5696137 0.13359664 1.3790001
-0.20399553 0.11395381 1.4030001
0.54921377 0.13388728 1.3820001
0.058472253 0.12612428 1.376
0.52163196 0.17063686 1.279
0.10907956 0.21983191 1.1520001
-0.37912479 0.029446943 1.5840001
-0.21116753 0.11387259 1.4020001
0.54200071 0.13388728 1.3820001
-0.050898407 0.10727305 1.2410001
0.48114255 0.13301536 1.373
0.4681704 0.13340288 1.3770001
0.32809448 0.053632468 1.5660001
-0.28425533 0.22309986 1.138
0.43782705 0.13291849 1.3720001
0.0068712421 0.21400489 1.153
0.18264666 0.21548975 1.161
-0.049626969 0.19300789 1.21
0.42909673 0.13243409 1.3670001
0.41482726 0.13243409 1.3670001
-0.18022315 0.23105574 1.1190001
0.28350803 -0.0037481587 1.6390001
0.40769249 0.13243409 1.3670001
-0.012646683 0.085495077 1.304
0.40085074 0.13253096 1.368
0.18334934 0.075757138 1.5180001
0.41539404 0.096378654 1.47
0.3717466 0.13233721 1.3660001
0.24394165 0.14967445 1.33
0.14633493 0.12759084 1.3920001
0.3651509 0.13253096 1.368
0.52452064 0.13311224 1.3740001
0.35010147 0.13224033 1.365
0.13235322 0.17453964 1.2590001
-0.32096359 0.13691427 1.3410001
-0.095431753 0.21400489 1.153
-0.15054761 0.19284838 1.2090001
0.32872856 0.13224033 1.365
0.35813949 0.1549675 1.3160001
0.30155104 0.1328216 1.3710001
-0.45799145 0.11338525 1.396
0.17873812 0.15426095 1.3100001
0.29546905 0.133306 1.376
-0.3232871 0.067744903 1.516
-0.093232945 0.15178807 1.289
0.25072801 0.13243409 1.3670001
-0.075383388 0.19428398 1.2180001
-0.25192532 0.1931674 1.2110001
0.46151838 0.15508525 1.317
0.229156 0.13233721 1.3660001
0.20414065 0.23562588 1.113
-0.081740461 0.19428398 1.2180001
-0.25781935 0.19284838 1.2090001
0.22202648 0.13233721 1.3660001
0.19350834 0.13233721 1.3660001
-0.40084791 0.11371015 1.4000001
0.17951174 0.13253096 1.368
0.56575084 0.19396496 1.2160001
-0.30220333 0.13088402 1.3510001
0.1930276 0.096444219 1.4710001
0.1726238 0.13272473 1.3700001
0.14665098 0.16930272 1.2690001
-0.22841664 0.21456172 1.156
-0.46278477 0.18142074 1.217
0.080015779 0.013670387 1.677
0.38626581 0.090878725 1.506
0.15172429 0.13320912 1.3750001
0.14559905 0.13417792 1.3850001
-0.036598843 0.19718172 1.197
0.13867006 0.13446854 1.388
0.13227791 0.13534047 1.3970001
0.12507606 0.13543735 1.3980001
-0.14104395 0.029800156 1.603
0.11777949 0.13543735 1.3980001
0.19270638 0.15449646 1.312
-0.05032723 0.004826759 1.646
0.094312273 0.13320912 1.3750001
-0.45070538 0.11338525 1.396
0.18557535 0.15426095 1.3100001
0.2442552 0.17467828 1.2600001
-0.20975804 0.13742477 1.3460001
0.072041698 0.13185281 1.3610001
-0.11949108 0.15765488 1.2820001
0.49745092 0.10951926 1.4410001
-0.2166221 0.13732266 1.345
0.06493827 0.13185281 1.3610001
0.38804561 0.0048296913 1.6470001
0.53362679 0.13359664 1.3790001
-0.2850351 0.068057716 1.5230001
0.057834838 0.13185281 1.3610001
0.47638303 0.11557824 1.4230001
0.069805063 0.095919706 1.4630001
0.050731402 0.13185281 1.3610001
-0.079530098 0.15131705 1.2850001
0.036256172 0.13088402 1.3510001
-0.45362845 0.087620124 1.452
0.0080869701 0.1314653 1.3570001
-0.0054197134 0.19300789 1.21
0.00099849259 0.13069026 1.3490001
-0.31947064 0.21493295 1.1580001
-0.17155792 0.10178594 1.4380001
0.47293028 0.12749918 1.391
-0.0257954 0.12410246 1.281
0.46456742 0.17592598 1.2690001
-0.14394754 0.0047974344 1.636
0.13587601 0.10906324 1.4350001
-0.15526815 0.13185281 1.3610001
0.16877791 0.1844022 1.2370001
-0.15257949 0.0048003672 1.6370001
0.076064602 0.10171515 1.437
-0.33720973 0.13078713 1.35
0.12838635 0.10906324 1.4350001
-0.16237158 0.13185281 1.3610001
-0.17644869 0.13175592 1.36
-0.2253048 0.13127153 1.355
-0.2115563 0.0953952 1.455
-0.031543113 0.09454681 1.2440001
-0.40616006 0.13030274 1.345
-0.23237693 0.13127153 1.355
-0.36718395 0.088706322 1.47
-0.25396758 0.1314653 1.3570001
-0.26143488 0.13165905 1.3590001
-0.27643213 0.13204657 1.363
-0.29044661 0.13194969 1.3620001
0.45463139 0.22427614 1.1440001
-0.038188767 0.10796458 1.2490001
-0.094462559 0.085626207 1.3060001
-0.3096391 0.095198505 1.452
-0.3304083 0.13088402 1.3510001
0.44230267 0.22408009 1.143
0.48971793 0.089671835 1.4860001
-0.169475 0.13185281 1.3610001
0.12081243 0.10898723 1.434
-0.34425575 0.13078713 1.35
0.56669962 0.10837922 1.4260001
-0.31043234 0.15273012 1.2970001
-0.36674714 0.13127153 1.355
-0.38117248 0.13136841 1.3560001
-0.29452994 0.21437612 1.1550001
0.54513502 0.10853123 1.4280001
-0.14873102 0.10157359 1.4350001
-0.38824981 0.13136841 1.3560001
0.35878384 0.22408009 1.143
-0.44994608 0.13078713 1.35
0.32299006 0.22408009 1.143
0.11011287 0.15390769 1.307
-0.22269259 0.10114888 1.429
0.25012365 0.1023522 1.4460001
-0.46403813 0.13078713 1.35
-0.13346571 0.13136841 1.3560001
0.15801394 0.10883524 1.432
-0.48158228 0.12981834 1.34
0.19374491 0.20257944 1.192
0.31456569 0.24280114 1.0930001
-0.38000274 0.17794594 1.2370001
-0.25858471 0.16344865 1.2750001
-0.49409065 0.12943083 1.3360001
-0.22156022 0.088766672 1.4710001
0.39814439 0.10355551 1.4630001
-0.24174634 0.12539099 1.368
-0.49731311 0.12846203 1.3260001
0.57848418 0.12676589 1.383
0.57457042 0.12749918 1.391
-0.38512331 0.14866161 1.3210001
0.31221804 0.095329642 1.4540001
0.072729826 0.12594096 1.3740001
0.54631478 0.12768249 1.393
0.52149117 0.12694922 1.3850001
0.15075019 0.10898723 1.434
-0.14085399 0.13165905 1.3590001
-0.092205696 0.20206958 1.189
0.50703382 0.12694922 1.3850001
0.47949988 0.12731586 1.3890001
-0.44527254 0.030004648 1.6140001
0.014957129 0.13660797 1.3380001
0.34702367 0.13813946 1.353
-0.39364454 0.168102 1.2600001
0.43851361 0.12804914 1.3970001
-0.29664567 0.24346758 1.0960001
0.19920431 0.095723018 1.46
0.43214831 0.12832412 1.4000001
0.46555081 0.053461228 1.5610001
-0.49383146 0.2244103 1.115
-0.20390861 0.20206958 1.189
0.39802775 0.12676589 1.383
-0.30975789 0.082081363 1.4890001
0.36141306 0.12658258 1.381
-0.45959955 0.021861531 1.6350001
0.34649494 0.12639926 1.3790001
0.33929753 0.12639926 1.3790001
-0.07711634 0.075189166 1.2460001
0.33210015 0.12639926 1.3790001
0.32513839 0.12649092 1.3800001
0.47245017 0.23904876 1.102
0.53114253 0.19524105 1.2240001
0.057590365 0.19252935 1.207
0.31977889 0.12722419 1.388
0.5551604 0.20669881 1.1800001
0.26943132 0.16485877 1.286
0.29080147 0.12722419 1.388
0.13491516 0.23064277 1.1170001
-0.096342206 0.20997132 1.164
0.28273997 0.12685756 1.3840001
0.33217859 0.013254651 1.626
-0.37409514 0.13136841 1.3560001
-0.32691941 0.2013898 1.1850001
0.27491927 0.12658258 1.381
0.2675176 0.12649092 1.3800001
-0.39851186 -0.021187801 1.6650001
-0.39503562 0.13127153 1.355
-0.32848284 0.10157359 1.4350001
0.13387457 0.143806 1.34
0.25292897 0.12639926 1.3790001
0.03625216 -0.0038350592 1.677
0.24573159 0.12639926 1.3790001
0.23836124 0.12630759 1.378
0.23116907 0.12630759 1.378
-0.32108742 0.021727821 1.6250001
0.026941909 0.021968499 1.6430001
0.21678476 0.12630759 1.378
0.20959261 0.12630759 1.378
0.37773371 0.12722419 1.388
0.20240045 0.12630759 1.378
0.19534993 0.12639926 1.3790001
0.37415051 0.030190552 1.6240001
-0.41350719 0.2013898 1.1850001
0.051886931 0.12032561 1.3920001
0.16796421 0.16408962 1.2800001
0.56868571 0.046417035 1.5990001
-0.26671588 0.088464946 1.4660001
0.18842545 0.12658258 1.381
0.15472364 0.1642178 1.281
-0.47352681 0.12438274 1.3570001
-0.29864761 0.12529935 1.3670001
-0.40457007 0.10739119 1.4130001
0.17451383 0.12694922 1.3850001
0.1674059 0.12704088 1.386
-0.13781331 0.19268887 1.2080001
0.51659632 0.13291849 1.3720001
0.34272596 0.13214345 1.3640001
-0.36146927 0.22309986 1.138
0.13936941 0.12786582 1.3950001
0.11786374 0.12823246 1.399
-0.35622427 0.13701636 1.342
-0.059221908 0.21363369 1.151
0.3817457 0.17077027 1.2800001
0.094998181 0.12694922 1.3850001
-0.31763786 0.10792321 1.4200001
0.087515995 0.12658258 1.381
0.17243695 0.2117752 1.174
-0.39992237 0.1880812 1.2190001
0.41293171 0.18024758 1.253
0.08001741 0.12612428 1.376
0.036415409 0.22270776 1.136
0.53865737 0.12759084 1.3920001
-0.38247564 0.021366803 1.598
0.3044197 0.09526407 1.4530001
0.065558545 0.12594096 1.3740001
-0.10296367 0.17895292 1.2440001
0.037114941 0.12676589 1.383
0.0081644421 0.12557432 1.3700001
-0.39679873 0.14787385 1.314
-0.025654443 0.11677495 1.274
-0.016118702 0.0048736776 1.6620001
0.26105627 0.24645959 1.0840001
-0.032024879 0.11576668 1.263
-0.044743434 0.1145751 1.25
-0.11851916 0.1304965 1.3470001
-0.41516513 0.11362892 1.399
0.40286991 0.24668694 1.085
-0.064572982 0.11503341 1.2550001
0.034825422 0.029948877 1.6110001
-0.079034962 0.11704993 1.2770001
-0.086706623 0.11842483 1.2920001
0.063506864 0.14284013 1.3310001
-0.1919039 0.23105574 1.1190001
-0.10407069 0.12300783 1.342
0.15642698 0.082026236 1.488
-0.019407865 0.14641088 1.3010001
0.35420525 0.12658258 1.381
0.05781367 0.061213847 1.5510001
-0.11983897 0.12484104 1.3620001
-0.035589851 0.20997132 1.164
0.48633265 0.07605657 1.524
-0.12732044 0.12520768 1.3660001
-0.1349421 0.12566598 1.3710001
-0.28914705 0.17765823 1.235
0.18616936 0.18885265 1.2240001
0.30440491 0.16562796 1.2920001
0.063036978 0.24645959 1.0840001
-0.016060513 0.013499202 1.6560001
-0.38117191 0.060227159 1.526
0.19630815 0.082467243 1.4960001
-0.3967174 0.094280615 1.4380001
-0.17852457 0.12612428 1.376
0.16140954 0.1642178 1.281
0.18148006 0.12676589 1.383
-0.21241947 0.22251174 1.1350001
-0.051431589 0.12148672 1.2540001
0.048276063 0.083018489 1.506
-0.18543637 0.12594096 1.3740001
-0.45479918 0.19077474 1.1960001
0.18449673 -0.0038236249 1.6720001
-0.19260764 0.12594096 1.3740001
0.51478398 0.096313097 1.4690001
-0.19963354 0.12584929 1.373
-0.21373728 0.088706322 1.47
-0.23460637 0.12539099 1.368
-0.24906825 0.12548266 1.3690001
0.48999375 0.19412446 1.217
-0.28109679 0.12704088 1.386
0.15966912 0.10242298 1.447
-0.30488759 0.1249327 1.363
0.49400213 0.082632616 1.4990001
-0.32027608 0.088464946 1.4660001
-0.34045696 0.1249327 1.363
-0.022452671 0.23022978 1.115
0.3260777 0.22803307 1.133
-0.25407988 0.20979096 1.1630001
-0.34731582 0.12484104 1.3620001
-0.37053645 0.12548266 1.3690001
0.041127618 0.1644742 1.2830001
0.39757645 0.16511518 1.2880001
-0.41250157 0.12520768 1.3660001
0.46709326 0.20240951 1.1910001
-0.40964741 -0.0037504458 1.6400001
-0.43875977 0.12456606 1.3590001
0.11827648 0.14877415 1.322
0.18383804 0.10327238 1.4590001
-0.45561209 0.12529935 1.3670001
-0.13477437 0.1780898 1.238
0.46021217 0.16588433 1.294
-0.46747544 0.12465771 1.36
0.018775707 0.21849613 1.1450001
0.52057475 0.12119002 1.4020001
-0.45988065 -0.0037412981 1.636
-0.14240867 0.12594096 1.3740001
0.53126109 0.021901643 1.6380001
0.075164743 0.10792321 1.4200001
0.50449646 0.12084426 1.3980001
0.1879074 0.03022773 1.626
0.49826679 0.12110358 1.401
-0.23668106 0.2105125 1.1670001
0.22431627 0.18869837 1.223
-0.4397549 0.037952371 1.5940001
0.48433286 0.12127647 1.4030001
-0.39348558 0.004820894 1.6440001
-0.023076916 0.21868694 1.146
0.47769019 0.12144934 1.4050001
0.015896142 0.11549702 1.4220001
-0.27338994 0.13762896 1.348
0.45860997 0.1222273 1.414
0.45154902 0.12231375 1.4150001
0.44573322 0.12274595 1.4200001
0.43523508 0.12188154 1.4100001
-0.48113406 0.19504023 1.184
-0.076774292 0.21830529 1.1440001
0.42544827 0.12119002 1.4020001
0.30065668 0.16048333 1.3050001
-0.27563068 0.075607419 1.5150001
0.10534604 0.14305477 1.3330001
0.39787403 0.12170867 1.4080001
-0.031340264 0.087487772 1.2360001
0.0070679043 0.20155975 1.1860001
-0.36178526 -0.0037870356 1.6560001
0.53322297 0.20774983 1.1860001
0.12867382 0.18885265 1.2240001
-0.18858065 -0.012407635 1.6530001
0.077725522 0.030283501 1.6290001
0.38969323 0.12144934 1.4050001
-0.17447942 0.19767591 1.2
-0.11857024 0.21830529 1.1440001
0.069095843 0.03022773 1.626
-0.37055832 0.10079497 1.424
0.38181588 0.12127647 1.4030001
-0.35271001 0.2106929 1.1680001
0.36717057 0.12127647 1.4030001
0.34925887 0.12015273 1.3900001
0.09455546 0.038714271 1.626
0.37894112 0.14391331 1.3410001
0.32208279 0.12084426 1.3980001
0.28539574 0.12075782 1.3970001
0.014700019 0.1479864 1.3150001
-0.44850144 0.10731519 1.4120001
0.18755861 0.14899923 1.3240001
-0.0074666631 -0.0038121908 1.6670001
-0.38482678 0.12548266 1.3690001
0.26295587 0.12049849 1.3940001
-0.072653309 0.15096377 1.2820001
-0.037944164 0.048978969 1.2410001
-0.39168563 0.12539099 1.368
0.25549677 0.12041204 1.393
0.26298285 0.242579 1.092
0.20510301 0.21964107 1.151
0.23318218 0.12015273 1.3900001
0.43032998 0.18946981 1.228
0.42392069 0.18946981 1.228
0.21156991 0.12023917 1.391
0.41785142 0.18962412 1.2290001
0.20430988 0.12023917 1.391
0.52954519 0.17551008 1.266
0.19704986 0.12023917 1.391
0.26319477 0.08912874 1.4770001
-0.14120826 0.067700222 1.5150001
0.19019918 0.12049849 1.3940001
0.15772615 0.2205952 1.156
0.31320837 0.10822722 1.424
-0.14950916 0.067878969 1.5190001
-0.39313096 0.10086575 1.4250001
0.18331718 0.12075782 1.3970001
-0.15173155 0.14273281 1.33
0.14036848 0.12144934 1.4050001
-0.24734864 0.20206958 1.189
-0.46847546 0.044268906 1.5250001
0.49428684 0.07605657 1.524
0.3944743 0.013352471 1.6380001
0.13341415 0.1217951 1.409
0.12920079 0.23084924 1.118
-0.15854433 0.18854406 1.222
0.083680704 0.18823548 1.22
0.11502667 -0.0038350592 1.677
0.58148915 0.013328017 1.6350001
0.20366076 0.14369868 1.3390001
0.5057652 0.16072927 1.307
-0.031644538 0.042741582 1.248
0.080889694 0.12023917 1.391
-0.1239598 0.197017 1.1960001
0.038564116 0.10921524 1.437
0.21625948 0.046010632 1.585
0.042267557 0.045720343 1.575
0.0010155166 0.1185968 1.3720001
0.016734546 0.074709117 1.4970001
-0.019303439 0.11185441 1.294
0.40019286 0.22388405 1.1420001
-0.39065439 0.19300789 1.21
-0.078601725 0.10977983 1.2700001
-0.34610876 0.067566164 1.5120001
-0.043741181 0.08011885 1.222
0.1178746 0.046358977 1.5970001
-0.095836818 0.11453407 1.325
-0.11306139 0.11807815 1.3660001
-0.16438147 0.029484121 1.5860001
0.32581586 0.22002272 1.153
-0.12160176 0.23064277 1.1170001
-0.044134922 0.09371078 1.233
0.25892252 0.037928559 1.5930001
0.1113055 0.075258076 1.508
-0.12089482 0.11876968 1.3740001
0.13164151 0.2027494 1.1930001
-0.042380981 0.20121984 1.184
-0.13632007 0.11972053 1.3850001
-0.14396334 0.12006629 1.3890001
-0.16606997 0.12032561 1.3920001
-0.011851416 0.18854406 1.222
-0.48337847 0.18592112 1.205
0.030847844 0.11590312 1.427
-0.24422035 0.11946121 1.3820001
-0.25161532 0.11954764 1.383
-0.27583879 0.12067137 1.396
0.41637796 0.068370521 1.5300001
-0.054092959 0.20494713 1.1700001
-0.28373334 0.12093069 1.399
0.3851898 0.068504579 1.5330001
-0.31338775 0.12110358 1.401
-0.31863981 0.12032561 1.3920001
-0.13433534 0.22662422 1.126
-0.35296938 0.21925943 1.149
0.5061956 0.068638638 1.536
-0.13449736 0.087077022 1.4430001
0.2743403 0.04603966 1.5860001
0.15455519 0.061055973 1.5470001
-0.3256709 0.12023917 1.391
0.44702595 0.21123403 1.171
0.34842235 0.19024128 1.233
-0.31561011 0.081585236 1.48
-0.33701158 0.11911543 1.378
-0.42197412 0.21773282 1.141
-0.3954078 0.11937476 1.381
-0.40203255 0.11920188 1.3790001
0.41992566 0.075557515 1.5140001
0.061056603 0.021901643 1.6380001
0.19681628 0.15913059 1.294
-0.43897238 0.11946121 1.3820001
0.38934365 0.075757138 1.5180001
-0.44650826 0.11954764 1.383
0.33146751 0.21159483 1.1730001
-0.47160026 0.1185968 1.3720001
0.44946641 0.16011439 1.302
0.29834387 0.10822722 1.424
0.24055576 0.089309767 1.48
-0.3379935 0.067521475 1.511
-0.47771421 0.11833747 1.3690001
-0.49056703 0.11799171 1.365
-0.44527999 0.13640378 1.3360001
0.21808404 0.15986845 1.3000001
0.57750648 0.11500969 1.416
-0.22051087 0.1075432 1.4150001
-0.16845603 0.11468481 1.4120001
-0.31479251 -0.012625313 1.682
-0.45922589 0.13640378 1.3360001
0.56312293 0.11509091 1.4170001
-0.22773506 0.10746719 1.414
-0.17570113 0.11460358 1.411
-0.46654776 0.13650587 1.337
0.55533504 0.11500969 1.416
0.54794455 0.11500969 1.416
0.54017228 0.11492847 1.4150001
0.53316349 0.11500969 1.416
0.13601908 0.21231638 1.177
-0.095075011 0.18916124 1.2260001
-0.3276805 0.15802382 1.2850001
0.50537986 0.1154158 1.4210001
0.49468923 0.11639046 1.4330001
-0.14608914 0.22662422 1.126
-0.43062341 0.037880939 1.5910001
0.48184538 0.053461228 1.5610001
0.56071448 0.095001824 1.4490001
-0.22308721 0.20257944 1.192
0.23522668 0.17938447 1.2470001
-0.29540044 0.082412116 1.4950001
0.47060376 0.11598435 1.4280001
0.14780667 0.12153578 1.406
0.5095256 0.075956762 1.5220001
0.3686209 0.12658258 1.381
0.46120465 0.11549702 1.4220001
0.44793051 0.11590312 1.427
-0.18450801 0.18900694 1.225
-0.48541641 0.24346758 1.0960001
0.41638079 0.1154158 1.4210001
-0.48981777 0.10511112 1.383
0.11845347 0.12153578 1.406
-0.043705389 0.073680557 1.2210001
0.401265 0.11533458 1.4200001
0.11103615 0.12144934 1.4050001
0.15508716 0.14402063 1.342
-0.050078124 0.073680557 1.2210001
0.39413103 0.1154158 1.4210001
-0.37449235 0.20652363 1.179
0.3476631 0.11476603 1.4130001
0.33314905 0.11484724 1.414
0.28031021 0.08191599 1.4860001
-0.17751451 0.045168798 1.5560001
0.39936012 0.068191774 1.526
-0.032329157 0.13017575 1.2750001
-0.41036659 0.20599812 1.176
0.31012908 0.11452236 1.4100001
0.29562023 0.11460358 1.411
0.28805155 0.11452236 1.4100001
-0.10644213 0.21792364 1.1420001
-0.22195424 0.17412375 1.256
0.25861484 0.11452236 1.4100001
-0.49039915 0.13030274 1.345
-0.47440818 0.2436897 1.097
0.25143385 0.11460358 1.411
0.24458839 0.11484724 1.414
0.23129113 0.11557824 1.4230001
0.46268365 0.088947706 1.4740001
0.0011620707 0.045575198 1.5700001
0.56064844 0.17938447 1.2470001
0.21400349 0.1142787 1.4070001
0.20129968 0.1154158 1.4210001
-0.26864362 -0.012520228 1.6680001
0.27853942 0.19915849 1.2090001
-0.17450453 0.15900762 1.2930001
0.18502307 0.11452236 1.4100001
0.15956599 0.19396496 1.2160001
0.42579225 0.021754563 1.6270001
0.1777899 0.11460358 1.411
0.14176716 0.11525335 1.419
0.30726972 0.12075782 1.3970001
0.077249825 0.1880812 1.2190001
0.11980145 0.11549702 1.4220001
0.1119845 0.11509091 1.4170001
0.20776743 0.13233721 1.3660001
-0.37082365 0.11346648 1.3970001
0.10444117 0.11492847 1.4150001
0.17669646 0.19817011 1.2030001
-0.46910989 0.24391186 1.098
0.081761979 0.11419747 1.406
0.2863726 0.18529662 1.243
-0.3018527 0.095132947 1.4510001
-0.38935348 -0.012482697 1.6630001
-0.15807138 0.095198505 1.452
0.074370749 0.11411625 1.4050001
0.54244661 0.013417684 1.646
0.047823947 0.1644742 1.2830001
-0.40537208 0.12520768 1.3660001
0.55465937 0.2103321 1.166
0.45559576 0.18931554 1.2270001
0.24060993 0.12023917 1.391
0.27023154 0.12049849 1.3940001
-0.018214453 0.18838978 1.2210001
-0.48674512 0.23839802 1.0990001
0.35618284 0.089249425 1.4790001
0.0087186703 0.088283911 1.4630001
0.023383545 0.11582191 1.4260001
-0.012869745 0.10778097 1.327
-0.2604546 0.17356922 1.2520001
-0.038035892 0.10103959 1.2440001
-0.14659777 0.15802382 1.2850001
-0.4725278 0.23414396 1.1060001
-0.044313896 0.10055225 1.238
0.049930885 0.20582296 1.1750001
-0.050734352 0.1844022 1.2370001
-0.28335476 0.15273012 1.2970001
-0.47354326 0.24896054 1.095
0.31194571 0.13824156 1.3540001
-0.47328684 0.0048472858 1.6530001
-0.063955545 0.10095836 1.243
0.16059142 0.21231638 1.177
-0.005795958 0.15913059 1.294
0.46098346 0.14058982 1.3770001
0.40049049 0.1805353 1.2550001
-0.070896477 0.10160813 1.251
0.19909564 0.21964107 1.151
0.0084266579 0.11484724 1.414
0.2259274 0.12015273 1.3900001
-0.41906562 0.15284789 1.2980001
0.44965506 0.21567537 1.1620001
0.12341034 -0.0038236249 1.6720001
0.038912989 0.10263532 1.45
-0.023278285 0.21456172 1.156
-0.086505294 0.10469455 1.289
-0.38774869 0.19784065 1.2010001
-0.095692158 0.10745609 1.3230001
-0.48021814 0.22035523 1.1240001
-0.11413737 0.1120045 1.3790001
-0.50074309 0.242579 1.092
-0.12230262 0.11289793 1.3900001
0.50760955 0.090094246 1.493
-0.13030307 0.11354771 1.3980001
-0.16040191 0.11419747 1.406
-0.46112001 0.052296791 1.5270001
0.17886914 0.03013478 1.6210001
-0.22515815 0.11354771 1.3980001
-0.46253464 0.15826976 1.2870001
-0.05779162 0.17981602 1.25
0.40369719 0.21983191 1.1520001
0.31517112 0.13253096 1.368
-0.26201519 0.11371015 1.4000001
0.096850127 0.11468481 1.4120001
-0.41568705 0.2262217 1.1240001
-0.26970693 0.11387259 1.4020001
0.56133461 0.14402063 1.342
-0.48450521 0.11825103 1.368
-0.32848045 0.11395381 1.4030001
-0.15879248 0.14284013 1.3310001
-0.28063357 0.13773106 1.3490001
-0.33628178 0.11411625 1.4050001
-0.34239203 0.11371015 1.4000001
-0.0060199131 0.12319116 1.3440001
-0.35807127 0.013360622 1.6390001
0.075772308 0.15343666 1.3030001
-0.38568217 0.11354771 1.3980001
0.069024518 0.15355441 1.304
-0.39297873 0.11354771 1.3980001
0.49522787 0.1897784 1.23
-0.4081549 0.11371015 1.4000001
0.24822631 0.12041204 1.393
0.14681673 0.0048120967 1.641
-0.46427768 0.11314159 1.393
-0.14084767 0.10129046 1.4310001
0.55220115 0.10845522 1.427
0.031532943 0.20582296 1.1750001
0.53171402 0.10883524 1.432
0.29081506 0.013303561 1.6320001
0.51820952 0.10913925 1.4360001
0.47227833 0.21159483 1.1730001
-0.045208763 0.12895057 1.263
-0.1151306 0.098459132 1.391
-0.029844249 0.2061733 1.177
0.4773396 0.045662288 1.5730001
0.47291064 0.10906324 1.4350001
0.46542102 0.10906324 1.4350001
-0.050119136 0.08011885 1.222
0.45761222 0.10898723 1.434
-0.39267471 0.21530415 1.1600001
-0.23752582 0.037547607 1.577
-0.36117381 0.067432098 1.5090001
0.21752907 0.089370109 1.4810001
0.27585331 0.10815122 1.4230001
0.44949999 0.10883524 1.432
-0.32862267 0.12584929 1.373
0.15206641 0.17453964 1.2590001
-0.1675892 0.08864598 1.4690001
0.067948498 0.046417035 1.5990001
0.41356897 0.10921524 1.437
0.051843129 0.18823548 1.22
0.31478626 0.12084426 1.3980001
-0.4597573 0.045778401 1.577
0.40748176 0.10959525 1.442
0.37659189 0.10936724 1.439
-0.31942815 0.037499987 1.575
-0.21420352 -0.003775601 1.651
-0.26860705 0.067923658 1.5200001
0.36728597 0.10883524 1.432
0.52258182 0.053461228 1.5610001
0.084217228 0.22368799 1.141
0.32537937 0.19444349 1.2190001
0.15646912 0.11517213 1.4180001
-0.48237777 0.13507649 1.3230001
0.35209194 0.10875924 1.4310001
0.33597636 0.10837922 1.4260001
-0.4230234 0.087559782 1.4510001
0.3292248 0.10860723 1.429
0.30599084 0.10830322 1.4250001
0.29091161 0.10822722 1.424
0.5647617 0.053598218 1.5650001
0.12612426 0.22408009 1.143
0.54225576 0.24827845 1.092
-0.3259638 0.18306054 1.228
-0.20785302 0.19332691 1.212
-0.29218671 0.021473771 1.6060001
-0.4390792 0.053495474 1.562
-0.48025519 0.12429108 1.3560001
0.26099923 0.10815122 1.4230001
0.42677978 0.10875924 1.4310001
0.25375038 0.10822722 1.424
0.42019001 0.10898723 1.434
0.24649113 0.10830322 1.4250001
0.43108934 0.21548975 1.161
0.23938917 0.10845522 1.427
0.21018508 0.10875924 1.4310001
0.089554377 0.068817385 1.5400001
0.20214964 0.10845522 1.427
0.091705814 0.14348404 1.337
-0.4119699 0.1877726 1.217
0.16786778 0.20757465 1.1850001
-0.38621932 0.087801158 1.455
0.19442888 0.10830322 1.4250001
-0.44442013 0.045894518 1.5810001
0.28130406 0.19476251 1.2210001
0.18686016 0.10822722 1.424
-0.44149712 0.22153148 1.13
0.065483823 0.068862073 1.5410001
0.17955394 0.10830322 1.4250001
0.45352471 0.21141444 1.1720001
-0.25962621 -0.003809904 1.6660001
-0.11978449 0.1877726 1.217
-0.11206818 0.12410776 1.3540001
-0.34255856 0.20582296 1.1750001
0.40671635 0.18039145 1.2540001
0.00095778302 0.15913059 1.294
-0.14805585 0.13175592 1.36
0.086704917 0.089973554 1.4910001
0.14336567 0.10906324 1.4350001
0.11309092 0.10875924 1.4310001
-0.045402523 0.23435566 1.107
-0.36289713 0.044994622 1.5500001
0.38553283 0.12740752 1.3900001
-0.3671754 0.10723918 1.411
0.090177603 0.10815122 1.4230001
-0.15994231 0.0132465 1.6250001
0.068039656 0.10837922 1.4260001
0.053191558 0.10845522 1.427
-0.012869745 0.10085499 1.327
-0.15851703 0.16319224 1.273
-0.019243769 0.098042913 1.2900001
0.22702107 0.16996978 1.274
-0.025090609 0.094698817 1.2460001
0.24822836 0.21456172 1.156
0.19082722 0.19348642 1.2130001
-0.05691319 0.055009224 1.2310001
0.52387393 0.10875924 1.4310001
0.23628554 0.13233721 1.3660001
-0.037821863 0.094014801 1.2370001
-0.056959428 0.093634784 1.2320001
0.23049159 0.20206958 1.189
-0.086639516 0.098118909 1.291
0.56333894 0.14787385 1.314
0.15168877 0.038142845 1.6020001
-0.43921477 0.0605429 1.534
-0.20844802 0.081971116 1.4870001
0.40743786 0.15962251 1.2980001
-0.23012683 0.11963408 1.3840001
-0.037760708 0.055187967 1.235
-0.10453598 0.10245104 1.348
-0.39827248 -0.00380533 1.664
0.32221666 0.20739947 1.184
0.12945996 0.10242298 1.447
-0.12353444 0.10670717 1.404
-0.22450711 0.18395498 1.2340001
-0.16513233 0.20634848 1.1780001
-0.13956814 0.1077712 1.4180001
0.52298504 0.1549675 1.3160001
-0.14738363 0.10807521 1.4220001
-0.35445595 0.11289793 1.3900001
0.29389346 0.23188166 1.123
-0.45930985 0.21252005 1.1450001
-0.17744444 0.10830322 1.4250001
-0.37311989 0.013287258 1.6300001
-0.23315886 0.20669881 1.1800001
0.28744119 0.19460298 1.22
-0.46543404 0.17204425 1.2410001
0.3801406 0.0048384885 1.6500001
-0.47833204 0.080372483 1.4580001
-0.41993055 0.037666652 1.582
-0.20632191 0.1078472 1.419
-0.49501166 0.17107381 1.2340001
-0.23511513 0.10746719 1.414
0.46599239 0.1805353 1.2550001
0.061693743 0.15900762 1.2930001
-0.27240014 0.1076192 1.416
-0.30366811 0.10822722 1.424
-0.43716624 0.19125326 1.199
0.13917862 -0.0037778879 1.6520001
-0.077611469 0.049492046 1.2540001
0.5026291 0.10306003 1.4560001
-0.31110036 0.10822722 1.424
0.27763334 0.19024128 1.233
0.40097189 0.15974547 1.299
-0.40893319 0.11911543 1.378
0.0077115241 0.15913059 1.294
-0.32459143 0.1077712 1.4180001
-0.36802641 0.20634848 1.1780001
-0.33915392 0.1076952 1.4170001
0.56771827 0.12759084 1.3920001
-0.35828102 0.10678317 1.4050001
-0.27216399 0.029502712 1.5870001
-0.39691409 0.10731519 1.4120001
-0.50629497 0.11833747 1.3690001
0.060724452 0.10860723 1.429
-0.41165337 0.10731519 1.4120001
0.53270018 0.1998174 1.2130001
0.35937777 0.19849956 1.205
0.060129534 0.11492847 1.4150001
-0.081552327 0.012920431 1.585
-0.094607212 0.14037183 1.3080001
0.017528236 0.045517143 1.5680001
-0.025493346 0.10943407 1.266
0.57696062 0.10143202 1.4330001
0.18595035 0.20704913 1.182
0.37909251 0.038309511 1.6090001
0.54933423 0.10185671 1.439
-0.30651253 0.12127647 1.4030001
0.10500801 0.23477907 1.1090001
0.25690097 0.021834789 1.6330001
-0.12584747 0.21456172 1.156
-0.18270059 0.19348642 1.2130001
0.53765494 0.10249376 1.4480001
0.38502768 0.15473197 1.314
0.065993756 0.061292779 1.5530001
0.52578771 0.1031308 1.457
-0.1740633 0.09565746 1.4590001
-0.43847263 -0.0037047085 1.6200001
0.51640499 0.10277689 1.452
0.047891393 0.090154588 1.4940001
-0.3249931 0.060148224 1.524
0.48475236 0.10249376 1.4480001
-0.24580757 0.19332691 1.212
0.47686529 0.10242298 1.447
0.44542143 0.10213985 1.4430001
0.4242923 0.10249376 1.4480001
0.51103532 0.21945027 1.1500001
-0.39944497 0.20669881 1.1800001
0.31861413 0.11492847 1.4150001
0.18165836 0.082908243 1.5040001
0.41115531 0.10298924 1.455
0.29860893 0.082687743 1.5000001
0.35553658 0.10228141 1.4450001
0.41734192 0.22349197 1.1400001
-0.37154683 -0.0211369 1.6610001
0.34751308 0.10213985 1.4430001
0.33974606 0.10206906 1.442
0.32469368 0.10206906 1.442
-0.012772761 0.12759012 1.317
-0.12608609 0.086473584 1.4330001
-0.33269474 0.10799921 1.4210001
0.17096815 0.21604657 1.164
-0.40295172 0.19284838 1.2090001
-0.3187032 0.060463965 1.5320001
0.31760737 0.10221063 1.4440001
0.015370742 0.12603262 1.3750001
0.30899706 0.10185671 1.439
-0.4197883 0.19189131 1.2030001
0.16053969 0.24280114 1.0930001
0.13547169 0.029893106 1.608
-0.38690299 0.029409761 1.582
0.30127704 0.10178594 1.4380001
0.29377171 0.10178594 1.4380001
0.001232387 -0.0038076171 1.6650001
-0.37795749 0.12557432 1.3700001
0.27934265 0.10199828 1.4410001
-0.28519768 -0.0038030434 1.6630001
0.43271765 0.20704913 1.182
-0.4655003 0.06658306 1.4900001
-0.47108412 0.13078713 1.35
0.24257655 0.1023522 1.4460001
0.42654845 0.20704913 1.182
-0.14650425 0.18306054 1.228
-0.237443 0.10107811 1.4280001
-0.39918292 0.0605429 1.534
-0.16964272 0.081971116 1.4870001
0.23519203 0.10242298 1.447
0.43338361 0.21964107 1.151
0.0087842252 0.08125449 1.4740001
-0.23228844 0.11346648 1.3970001
0.22763972 0.10242298 1.447
0.42737627 0.21964107 1.151
-0.23940825 0.11338525 1.396
-0.25270268 0.10121967 1.4300001
-0.041837733 -0.0037733142 1.6500001
0.22008745 0.10242298 1.447
-0.025896085 0.13129884 1.286
-0.29165921 0.12119002 1.4020001
-0.0058900192 0.1479864 1.3150001
0.46104667 0.12823246 1.399
0.4005321 0.1702366 1.276
0.18856606 0.10171515 1.437
0.27988505 0.18529662 1.243
0.067037672 0.11411625 1.4050001
0.35281655 0.20722431 1.1830001
0.14466445 0.10249376 1.4480001
0.32839629 0.20739947 1.184
-0.0058452282 0.15367217 1.3050001
0.13710694 0.10249376 1.4480001
0.0011531885 0.061490119 1.5580001
0.11411829 0.10221063 1.4440001
-0.15332514 -0.0037618801 1.6450001
0.10643404 0.10206906 1.442
0.091825262 0.10256455 1.4490001
-0.15654729 0.10178594 1.4380001
0.073523819 0.12006629 1.3890001
0.16537239 0.10875924 1.4310001
0.17509247 0.18425313 1.2360001
0.08362285 0.10178594 1.4380001
0.068516791 0.10164437 1.4360001
0.10020913 0.16916929 1.268
0.27421075 0.17037003 1.2770001
0.061149396 0.10185671 1.439
0.44359025 0.21567537 1.1620001
0.031323425 0.10256455 1.4490001
0.22037172 0.16996978 1.274
0.0085577657 0.10164437 1.4360001
0.53703278 0.083238997 1.5100001
-0.025634306 0.056886058 1.273
0.37395936 0.12110358 1.401
-0.0060960581 0.096335642 1.3610001
0.15222196 0.10249376 1.4480001
0.095374063 0.08296337 1.5050001
-0.48661375 0.12410776 1.3540001
0.47473034 0.24302331 1.0940001
-0.024969786 0.087770902 1.24
-0.44209543 0.080703236 1.4640001
-0.043920159 0.086850725 1.2270001
-0.42523941 0.013059011 1.6020001
-0.45510113 0.14208892 1.3240001
-0.44912201 0.080592982 1.462
-0.18165746 0.13742477 1.3460001
-0.050283194 0.086779937 1.2260001
-0.19457015 0.11997984 1.388
0.44199091 0.15986845 1.3000001
-0.032506648 0.15765488 1.2820001
-0.06338957 0.087204643 1.2320001
0.55639571 0.14455722 1.3470001
-0.070216417 0.087700121 1.2390001
-0.1614794 0.045226853 1.5580001
-0.10777652 0.24324542 1.095
-0.085230201 0.089894392 1.2700001
-0.27178791 0.052673522 1.5380001
-0.44117695 0.18669257 1.21
0.049141571 0.068504579 1.5330001
-0.41545022 0.087559782 1.4510001
-0.18047069 0.12023917 1.391
-0.34969023 0.21493295 1.1580001
0.07050664 0.14294745 1.332
-0.21658981 0.10178594 1.4380001
-0.23079516 0.10143202 1.4330001
0.42073494 0.20722431 1.1830001
-0.032151662 0.16916929 1.268
-0.24489614 0.10107811 1.4280001
-0.25998431 0.10114888 1.429
0.50684822 0.0048150294 1.6420001
-0.46821195 0.038238082 1.6060001
-0.29852423 0.10157359 1.4350001
0.074017875 0.2106929 1.1680001
-0.31841296 0.12465771 1.36
-0.49295145 0.12392444 1.3520001
-0.47772783 0.21601538 1.1320001
-0.30241033 0.037428558 1.572
-0.30622712 0.10164437 1.4360001
0.067863606 0.2105125 1.1670001
-0.14468105 0.14262551 1.3290001
-0.23396081 -0.0038167643 1.669
0.22744766 -0.0038121908 1.6670001
-0.50000793 0.12392444 1.3520001
-0.24118584 0.22172754 1.131
0.48172414 0.004820894 1.6440001
-0.32144055 0.10171515 1.437
0.35805315 0.10830322 1.4250001
-0.33550423 0.10143202 1.4330001
0.31603703 0.20739947 1.184
0.11238758 0.14316209 1.3340001
-0.34923989 0.10107811 1.4280001
-0.35519427 0.1006534 1.4220001
-0.38569352 0.10086575 1.4250001
-0.40056843 0.10086575 1.4250001
0.17767464 0.13824156 1.3540001
-0.4526307 0.10086575 1.4250001
0.17073373 0.13834365 1.355
-0.46684948 0.10072419 1.4230001
0.075175457 0.23774725 1.0960001
-0.21223491 0.19784065 1.2010001
-0.15453032 0.21849613 1.1450001
-0.48294342 0.099450096 1.4050001
0.031801306 0.2013898 1.1850001
0.14278634 0.15913059 1.294
-0.25947329 0.075507611 1.5130001
-0.019094594 0.16408962 1.2800001
0.48214522 0.068638638 1.536
-0.4878338 0.098954618 1.3980001
-0.27002078 0.060306098 1.5280001
0.13321762 0.082081363 1.4890001
-0.37294251 0.17765823 1.235
0.56631625 0.094674006 1.4440001
0.54897773 0.095591888 1.4580001
0.41166022 0.053872202 1.5730001
0.52687037 0.095723018 1.46
-0.078539833 0.16930272 1.2690001
0.084798425 0.24955888 1.0730001
-0.28563708 0.037380941 1.5700001
0.0011975989 0.030079009 1.618
0.5206728 0.095985278 1.4640001
-0.17895472 0.074858837 1.5000001
-0.011735035 0.19300789 1.21
0.49178264 0.096313097 1.4690001
-0.46883011 0.073661089 1.4760001
0.57215041 0.13793525 1.3510001
0.4834564 0.096181966 1.4670001
0.17615187 0.12084426 1.3980001
0.53923124 0.21511854 1.159
-0.34425679 0.052707769 1.539
0.46654746 0.095854141 1.462
0.4141115 0.19428398 1.2180001
0.44304883 0.095723018 1.46
0.58221197 0.045517143 1.5680001
0.49295565 0.21604657 1.164
0.040005662 0.17952831 1.248
0.422203 0.096181966 1.4670001
0.27335718 0.23520248 1.1110001
-0.019273605 0.10493822 1.2920001
-0.10453598 0.095415466 1.348
-0.094144426 0.19364594 1.2140001
0.38657078 0.13253096 1.368
0.4079991 0.096444219 1.4710001
0.50026548 0.20325924 1.1960001
0.039449722 0.096378654 1.47
0.3899388 0.097689934 1.4900001
-0.025996769 0.15202358 1.291
0.23040433 0.14989951 1.332
0.37011388 0.09657535 1.473
-0.041199755 0.21363369 1.151
0.47588608 0.13864994 1.358
0.36217985 0.096509784 1.4720001
0.54332978 0.10213985 1.4430001
-0.047125116 0.21326247 1.149
-0.12609458 0.0047681103 1.626
-0.49272338 0.11135472 1.3710001
0.35425621 0.096444219 1.4710001
0.37868553 0.10242298 1.447
0.35464114 0.053940699 1.575
0.29663178 0.095198505 1.452
0.0011539287 0.053392727 1.559
0.11979365 0.030171961 1.623
-0.1449154 -0.012362598 1.6470001
0.28905341 0.095198505 1.452
-0.41674814 0.21811447 1.143
0.44538972 0.075856954 1.5200001
-0.38876218 0.11954764 1.383
0.33054423 0.021634223 1.618
0.24187322 0.19380544 1.215
0.5245961 0.090335622 1.4970001
-0.22758572 0.24302331 1.0940001
0.26705194 0.095460765 1.4560001
0.039744925 0.089370109 1.4810001
-0.37712038 0.052810512 1.5420001
0.25963083 0.095526323 1.457
-0.0074487468 -0.012482697 1.6630001
0.25237232 0.09565746 1.4590001
0.2447574 0.09565746 1.4590001
-0.13789488 0.11379136 1.401
0.49881288 0.089913219 1.4900001
0.3862862 0.04656218 1.6040001
-0.050488263 0.093558781 1.2310001
-0.50278777 0.21996313 1.1220001
0.23730502 0.095723018 1.46
-0.0059572058 0.13579118 1.33
0.22984219 0.095788583 1.4610001
0.22206473 0.095723018 1.46
-0.16667679 0.18410404 1.235
-0.13342237 0.021553999 1.6120001
-0.37617621 0.06729804 1.506
0.20138738 0.08906839 1.4760001
0.43394509 0.10868323 1.4300001
0.16121395 0.095788583 1.4610001
0.56459236 0.20564778 1.174
-0.19339038 0.013213892 1.6210001
0.15358859 0.095788583 1.4610001
0.14606313 0.095854141 1.462
0.13062304 0.095723018 1.46
0.12291866 0.09565746 1.4590001
0.51948082 0.11525335 1.419
0.1152247 0.095591888 1.4580001
-0.35434943 0.053016003 1.5480001
0.10731976 0.095329642 1.4540001
-0.39317241 0.24302331 1.0940001
0.099799529 0.0953952 1.455
-0.39347699 0.15343666 1.3030001
0.084902197 0.095723018 1.46
-0.42571291 0.1917318 1.202
-0.32704863 0.074709117 1.4970001
0.077229127 0.09565746 1.4590001
-0.36856058 0.067342728 1.5070001
0.44140863 0.10868323 1.4300001
-0.065859295 0.15740894 1.2800001
0.27377936 0.013303561 1.6320001
-0.35174873 0.16344865 1.2750001
-0.12086718 0.18306054 1.228
0.46087709 0.20240951 1.1910001
-0.44618079 0.12465771 1.36
0.47432169 0.13311224 1.3740001
-0.15028571 0.095067382 1.45
0.02390828 0.095591888 1.4580001
0.38812292 0.17063686 1.279
0.44708139 0.12841578 1.401
-0.3291887 -0.003809904 1.6660001
0.39052203 0.20757465 1.1850001
0.014834163 0.14241086 1.327
-0.27528575 0.10129046 1.4310001
0.0086233197 0.094870687 1.447
-0.32434085 -0.012655338 1.6860001
0.31035918 0.029762976 1.6010001
0.18951553 0.17924061 1.2460001
-0.15317249 0.1142787 1.4070001
-0.30203867 0.17765823 1.235
0.28022149 0.021660967 1.6200001
-0.024869101 0.080971181 1.235
0.49293205 0.12704088 1.386
0.080349781 0.0049381908 1.6840001
0.059491049 0.046329949 1.5960001
0.17149729 0.089551151 1.4840001
-0.037485532 0.08038111 1.2260001
-0.20756997 0.044646278 1.5380001
0.29624882 0.22783183 1.1320001
0.0073658763 0.18425313 1.2360001
0.24786514 0.15473197 1.314
0.36848089 0.13824156 1.3540001
-0.069933057 0.080905624 1.2340001
0.37595841 0.076256201 1.5280001
-0.19297294 0.24827845 1.092
0.4754754 0.096116401 1.4660001
-0.47987351 0.013417684 1.646
-0.10500128 0.088773265 1.3540001
0.46362013 0.14412795 1.3430001
-0.12529419 0.093362726 1.424
-0.092121027 0.22981682 1.113
-0.38052306 0.1879269 1.2180001
-0.209425 0.23105574 1.1190001
0.46085528 0.082301863 1.493
-0.44685155 0.1530834 1.3000001
0.54730368 0.090214938 1.4950001
0.48759729 0.1328216 1.3710001
-0.05742107 0.23043628 1.1160001
-0.29074973 0.20997132 1.164
-0.065859295 0.15072827 1.2800001
-0.35088587 0.11894256 1.376
0.23210327 0.076156385 1.526
-0.37292901 0.074509487 1.493
-0.14212722 0.094674006 1.4440001
-0.23765305 0.068147086 1.5250001
0.22480799 0.10860723 1.429
-0.24916838 0.10716318 1.4100001
0.17176963 0.1541432 1.309
0.28828734 0.133306 1.376
0.46366164 0.13417792 1.3850001
-0.33901614 0.094936252 1.4480001
-0.16599202 0.0953952 1.455
-0.18155368 0.095591888 1.4580001
-0.11376783 0.1522591 1.2930001
-0.21147226 0.1314653 1.3570001
-0.27784821 -0.012542746 1.6710001
-0.18916339 0.095591888 1.4580001
-0.33271292 0.19236985 1.2060001
-0.1963682 0.0953952 1.455
0.090933941 0.18365684 1.2320001
-0.21915032 0.0953952 1.455
0.14917332 0.11525335 1.419
-0.2576507 0.095591888 1.4580001
-0.26453269 0.095329642 1.4540001
0.56702328 0.22153148 1.13
0.3131009 0.21159483 1.1730001
0.25769871 0.1897784 1.23
-0.20664127 0.14922431 1.3260001
-0.32130539 0.168102 1.2600001
0.29545185 0.18039145 1.2540001
-0.28182641 0.096050836 1.465
-0.14306766 0.013254651 1.626
-0.38954449 0.10731519 1.4120001
-0.22743437 0.075357892 1.5100001
0.17779329 0.096509784 1.4720001
-0.46526989 0.030209143 1.6250001
-0.29468516 0.09526407 1.4530001
-0.48690215 0.19487551 1.1830001
-0.37035459 0.17301467 1.248
0.10115749 0.16408962 1.2800001
-0.13051294 0.14230354 1.3260001
-0.2076795 0.17967218 1.2490001
0.36113036 0.11435992 1.4080001
-0.10275235 0.13528068 1.325
-0.039302632 0.23818108 1.098
0.51439565 0.04603966 1.5860001
-0.006978441 0.045226853 1.5580001
-0.44423208 0.21696952 1.1370001
-0.41842946 0.10716318 1.4100001
-0.33191645 0.095067382 1.45
-0.36593112 0.094083928 1.4350001
-0.2629953 0.14284013 1.3310001
0.20073403 0.18410404 1.235
0.43922314 0.15449646 1.312
-0.48769277 0.11184205 1.3770001
-0.43657798 0.004729989 1.613
0.035987809 0.13691427 1.3410001
-0.42673871 0.094280615 1.4380001
0.43095511 0.10228141 1.4450001
0.55065078 0.089490801 1.483
0.30008495 0.069174878 1.5480001
0.53383189 0.090576999 1.501
0.23533794 0.19364594 1.2140001
0.12226219 0.23456736 1.108
-0.19276071 0.044936568 1.5480001
-0.48390931 0.065912753 1.475
-0.42364675 0.021340063 1.5960001
0.51643759 0.09027528 1.4960001
-0.17999297 0.21437612 1.1550001
-0.25004101 0.095591888 1.4580001
-0.070556447 0.094622806 1.245
0.47969177 0.089249425 1.4790001
-0.19527024 0.23969954 1.105
0.29969621 0.088525295 1.4670001
0.47165331 0.089189075 1.478
0.10210584 0.15888464 1.2920001
0.16352336 0.11492847 1.4150001
0.23629224 0.082797989 1.5020001
0.3547979 0.068817385 1.5400001
0.34185085 0.046213835 1.5920001
0.45591646 0.08912874 1.4770001
0.44820765 0.08912874 1.4770001
0.254794 0.088887356 1.473
0.42680779 0.089490801 1.483
-0.12862535 0.11928833 1.3800001
0.12722327 0.11549702 1.4220001
-0.43917426 0.1821661 1.222
0.37136382 0.22447219 1.1450001
-0.39091352 0.045430057 1.5650001
0.41991535 0.089671835 1.4860001
-0.44518766 0.18201704 1.2210001
0.36506861 0.22427614 1.1440001
-0.39857167 0.045371998 1.5630001
0.1257356 0.046184804 1.5910001
0.41215953 0.089671835 1.4860001
0.13749366 0.013303561 1.6320001
-0.20160179 0.021647595 1.6190001
0.58324474 0.11468481 1.4120001
0.4759019 0.20704913 1.182
0.40413153 0.089611486 1.485
0.3985163 0.090094246 1.493
0.48106983 0.10921524 1.437
-0.49862194 0.16583394 1.243
0.34964159 0.089551151 1.4840001
-0.48238057 0.093428291 1.4250001
-0.015119769 0.037119035 1.559
-0.27399325 0.083018489 1.506
0.41491097 0.20739947 1.184
-0.0387697 0.16916929 1.268
0.08282651 0.15390769 1.307
0.34258732 0.089732185 1.4870001
0.33685279 0.09027528 1.4960001
0.16788366 0.22408009 1.143
0.17522767 0.2027494 1.1930001
0.07362067 0.16890247 1.266
-0.15700294 0.14809893 1.3160001
0.32354602 0.088766672 1.4710001
-0.28453195 0.16306405 1.2720001
-0.17796834 0.23969954 1.105
0.43347922 0.06854926 1.534
0.31522426 0.088585638 1.4680001
0.42547289 0.06854926 1.534
0.30756238 0.088585638 1.4680001
0.21505427 0.13243409 1.3670001
-0.36327207 0.11338525 1.396
0.40972707 0.068593957 1.5350001
0.29203954 0.088525295 1.4670001
0.27053678 0.089008041 1.475
-0.31703746 0.12694922 1.3850001
0.43247142 0.19396496 1.2160001
0.23471907 0.090033904 1.4920001
0.51636785 0.21567537 1.1620001
0.29774946 0.20757465 1.1850001
0.22632352 0.08979252 1.488
-0.29847643 0.21887778 1.1470001
-0.087042175 0.13242193 1.2970001
0.17936346 0.089611486 1.485
0.33887932 0.08296337 1.5050001
0.15185772 0.067923658 1.5200001
0.55688483 0.089249425 1.4790001
0.55206281 0.083128743 1.508
0.43758658 0.10206906 1.442
0.15495522 0.088947706 1.4740001
0.059602465 0.22662422 1.126
-0.45930013 0.16383323 1.2780001
0.13966349 0.089008041 1.475
0.1318756 0.088947706 1.4740001
-0.02488924 0.061683677 1.2360001
0.10306696 0.21983191 1.1520001
0.41088229 0.13824156 1.3540001
0.23991057 0.076106481 1.5250001
-0.34370416 0.11894256 1.376
0.18455605 0.046358977 1.5970001
0.12409813 0.088887356 1.473
0.11648917 0.088947706 1.4740001
0.062845804 -0.0038556412 1.6860001
-0.14531122 0.1879269 1.2180001
-0.35962895 0.11946121 1.3820001
0.060184728 0.22290382 1.1370001
0.10931263 0.089370109 1.4810001
0.094867088 0.090335622 1.4970001
-0.48698068 0.030506585 1.641
0.39844051 0.15461423 1.3130001
0.37107849 0.004832624 1.6480001
-0.21342681 0.1076952 1.4170001
-0.22720461 0.19364594 1.2140001
0.39543456 0.083294116 1.511
0.055688988 0.090154588 1.4940001
0.22340426 0.07590685 1.521
0.56886369 0.13885413 1.36
0.031863857 0.088947706 1.4740001
0.024105055 0.088706322 1.47
0.26114854 0.0048678126 1.6600001
0.17150673 0.17426239 1.2570001
-0.012656381 0.078749493 1.3050001
0.0069308369 0.20979096 1.1630001
-0.018632146 0.075370207 1.2490001
-0.033105105 0.013401381 1.6440001
-0.031086702 0.073982283 1.2260001
0.21334513 0.22763054 1.131
0.022875207 0.12058493 1.3950001
-0.091298342 -0.0036841268 1.6110001
-0.041609526 0.013376926 1.641
-0.037393805 0.073801249 1.223
0.38407794 0.053461228 1.5610001
-0.063029401 0.073921934 1.225
-0.12200765 0.14731117 1.309
0.14098911 0.082081363 1.4890001
-0.069819719 0.074344352 1.2320001
0.41623703 0.23146869 1.1210001
-0.084961757 0.076396056 1.266
0.56969327 0.15765488 1.2820001
0.1284226 0.021727821 1.6250001
-0.15173675 0.088344261 1.4640001
0.37582514 0.13834365 1.355
-0.15970437 0.088525295 1.4670001
0.24258339 0.16485877 1.286
-0.24609561 0.068281151 1.5280001
-0.19085002 0.088766672 1.4710001
-0.23717882 0.11954764 1.383
0.33996204 0.13813946 1.353
0.037759021 0.12162223 1.4070001
-0.19798775 0.088525295 1.4670001
-0.023499792 0.2105125 1.1670001
-0.35616282 0.15876167 1.291
-0.33317026 0.12032561 1.3920001
-0.23110785 0.089490801 1.483
-0.13302179 0.2103321 1.166
-0.29094195 0.16293585 1.271
-0.34531665 0.14241086 1.327
-0.29279169 0.068013027 1.5220001
-0.23594898 0.088404603 1.465
0.18118387 0.16396141 1.279
-0.25141299 0.088464946 1.4660001
-0.038586248 0.12226176 1.2620001
-0.26118499 0.089189075 1.478
0.39418098 0.17037003 1.2770001
0.45374495 0.12823246 1.399
0.24645188 0.18455125 1.238
-0.18475217 0.10822722 1.424
0.25580829 0.16473059 1.2850001
0.071687996 -0.0038579279 1.687
-0.17549492 0.088766672 1.4710001
0.21105462 0.004911799 1.6750001
-0.27923334 0.090033904 1.4920001
0.27068675 0.14911176 1.325
-0.19164458 0.10792321 1.4200001
-0.29263413 0.089370109 1.4810001
-0.35967502 0.13127153 1.355
-0.29955265 0.08912874 1.4770001
0.55551517 0.20291933 1.194
-0.32792753 0.088464946 1.4660001
0.55020344 0.20325924 1.1960001
-0.33535007 0.088404603 1.465
-0.3429963 0.088404603 1.465
0.2648221 0.17523281 1.2640001
-0.056728259 0.086850725 1.2270001
-0.18882279 0.13752687 1.3470001
-0.4411318 0.10731519 1.4120001
0.19461581 0.14911176 1.325
0.04587188 0.10875924 1.4310001
-0.078106597 0.10250158 1.2620001
0.21917486 0.10951926 1.4410001
-0.35951161 0.088706322 1.47
0.37500376 0.16023737 1.3030001
0.4038091 0.060898107 1.5430001
-0.46531731 0.045517143 1.5680001
-0.40869981 0.067476787 1.5100001
0.57464772 0.087258056 1.4460001
0.22397693 0.12630759 1.378
0.27657279 0.16511518 1.2880001
-0.12632723 -0.0037252903 1.6290001
-0.024788555 0.074284002 1.2310001
0.42591375 0.2469143 1.0860001
0.018464144 0.22662422 1.126
-0.40759593 0.087499432 1.45
-0.36244643 0.08169549 1.4820001
0.39050859 0.10355551 1.4630001
0.53573757 0.23583759 1.1140001
-0.33180353 0.17329194 1.25
-0.43847167 0.087620124 1.452
-0.094607212 0.092584148 1.3080001
-0.34375346 0.23105574 1.1190001
0.26811317 0.061174378 1.5500001
-0.079530098 0.13119675 1.2850001
0.3695724 0.24714164 1.087
-0.034397408 0.22642295 1.125
-0.41144875 0.24600483 1.082
-0.077363901 0.068906449 1.25
-0.46057159 0.087499432 1.45
0.12662558 0.075008549 1.503
-0.46749383 0.087378748 1.4480001
0.24883419 0.021874901 1.636
-0.48711973 0.086835645 1.439
-0.17204523 0.23948263 1.1040001
0.033982348 0.045633256 1.572
0.57298338 0.080537863 1.4610001
0.56961471 0.081144236 1.4720001
-0.30882546 0.22368799 1.141
0.30434972 0.053769458 1.5700001
-0.21237978 0.23948263 1.1040001
0.28438285 0.088525295 1.4670001
0.56574935 0.08169549 1.4820001
-0.41139591 -0.012362598 1.6470001
0.40032154 0.096444219 1.4710001
0.37943083 0.13253096 1.368
0.1724218 0.082246743 1.4920001
0.52092534 0.08318387 1.5090001
-0.27460068 0.14165963 1.3200001
-0.34653139 0.021727821 1.6250001
0.51168948 0.08296337 1.5050001
-0.17159188 0.12630759 1.378
0.2102243 0.089551151 1.4840001
0.48390815 0.082246743 1.4920001
-0.031872746 0.10865611 1.2570001
-0.48278156 0.21563372 1.13
-0.27405044 0.021366803 1.598
-0.38403642 0.06729804 1.506
0.19381495 0.08912874 1.4770001
0.47644007 0.082301863 1.493
0.45458025 0.082577489 1.498
0.44795471 0.082797989 1.5020001
-0.37460127 0.08864598 1.4690001
0.3230662 0.068906754 1.5420001
-0.23944904 0.13127153 1.355
-0.41287279 0.13020587 1.3440001
-0.050734352 0.048821103 1.2370001
0.025269315 0.060819175 1.5410001
0.43198818 0.082742862 1.501
0.56545776 0.030450815 1.6380001
0.4235889 0.082632616 1.4990001
-0.1153789 0.09139581 1.3940001
0.554245 0.22702675 1.128
0.03443129 0.1644742 1.2830001
-0.063595377 0.048781633 1.2360001
0.41631997 0.082742862 1.501
0.54835767 0.22702675 1.128
0.02771334 0.16434599 1.2820001
0.35103843 0.061529581 1.559
0.40848583 0.082742862 1.501
0.01556078 0.12032561 1.3920001
0.58076924 0.10822722 1.424
0.083951607 0.05431743 1.5860001
0.40011784 0.082632616 1.4990001
0.52944756 0.23562588 1.113
-0.33832762 0.17329194 1.25
-0.17070383 -0.0037664536 1.6470001
0.38167208 0.083735116 1.5190001
-0.21349816 0.12557432 1.3700001
0.36605674 0.083790243 1.5200001
0.54094428 0.090456314 1.4990001
0.35134208 0.084065869 1.5250001
-0.30658647 0.21437612 1.1550001
0.2122414 0.10228141 1.4450001
-0.050418958 -0.0037710273 1.649
-0.06426426 0.10796458 1.2490001
0.54086423 0.22290382 1.1370001
0.4003894 0.20325924 1.1960001
0.32948464 0.082577489 1.498
0.32059252 0.082301863 1.493
0.3703638 0.10221063 1.4440001
0.081993088 0.061134908 1.549
0.31426674 0.082687743 1.5000001
0.32534534 0.21159483 1.1730001
