# .PCD v0.7 - Point Cloud Data file format
VERSION 0.7
FIELDS x y z
SIZE 4 4 4
TYPE F F F
COUNT 1 1 1
WIDTH 1549
HEIGHT 1
VIEWPOINT 0 0 0 1 0 0 0
POINTS 1549
DATA ascii
0.074283086 0.21701479 1.051
0.070924267 0.21680832 1.0500001
0.067636125 0.21680832 1.0500001
0.064347982 0.21680832 1.0500001
0.061059836 0.21680832 1.0500001
0.054431658 0.21660182 1.049
0.051146649 0.21660182 1.049
0.047816012 0.21639535 1.0480001
0.044534132 0.21639535 1.0480001
0.041252252 0.21639535 1.0480001
0.037970372 0.21639535 1.0480001
0.028124735 0.21639535 1.0480001
0.0051614055 0.21680832 1.0500001
0.0018732622 0.21680832 1.0500001
-0.0014148809 0.21680832 1.0500001
-0.0047030239 0.21680832 1.0500001
-0.0079911668 0.21680832 1.0500001
-0.01127931 0.21680832 1.0500001
-0.014567453 0.21680832 1.0500001
-0.017855596 0.21680832 1.0500001
-0.024408612 0.21660182 1.049
-0.027693624 0.21660182 1.049
-0.71745157 0.24493377 1.0300001
-0.030978635 0.21660182 1.049
-0.72137672 0.24517155 1.031
-0.034230985 0.21639535 1.0480001
-0.72460532 0.24517155 1.031
-0.037512865 0.21639535 1.0480001
-0.72783399 0.24517155 1.031
-0.040794745 0.21639535 1.0480001
-0.047313314 0.21618886 1.0470001
-0.060370591 0.21598236 1.046
-0.073543303 0.21618886 1.0470001
-0.083459184 0.21639535 1.0480001
-0.090022944 0.21639535 1.0480001
-0.093393855 0.21660182 1.049
-0.09667886 0.21660182 1.049
-0.10005917 0.21680832 1.0500001
0.3799966 0.23852202 0.99000007
-0.12989941 0.21722127 1.052
-0.16911016 0.21680832 1.0500001
-0.17239831 0.21680832 1.0500001
-0.17880414 0.21660182 1.049
-0.18865918 0.21660182 1.049
-0.19851421 0.21660182 1.049
-0.21822429 0.21660182 1.049
-0.23509671 0.21701479 1.051
-0.24873425 0.21742778 1.0530001
-0.2520318 0.21742778 1.0530001
0.2510477 0.23972668 0.99500006
-0.25887248 0.21763425 1.054
0.23834428 0.23948574 0.99400002
-0.27181703 0.21742778 1.0530001
-0.2781477 0.21722127 1.052
-0.28144211 0.21722127 1.052
-0.28446585 0.21701479 1.051
-0.28748333 0.21680832 1.0500001
-0.29077145 0.21680832 1.0500001
-0.29377952 0.21660182 1.049
-0.29678139 0.21639535 1.0480001
-0.30006325 0.21639535 1.0480001
-0.30305567 0.21618886 1.0470001
-0.30633444 0.21618886 1.0470001
-0.3096132 0.21618886 1.0470001
-0.31289193 0.21618886 1.0470001
-0.31944942 0.21618886 1.0470001
-0.32272816 0.21618886 1.0470001
0.18449436 0.23828107 0.98900002
-0.32631829 0.21639535 1.0480001
0.18139724 0.23828107 0.98900002
-0.32960019 0.21639535 1.0480001
0.17520301 0.23828107 0.98900002
-0.33319968 0.21660182 1.049
0.17210589 0.23828107 0.98900002
-0.3364847 0.21660182 1.049
-0.34009364 0.21680832 1.0500001
-0.34338173 0.21680832 1.0500001
-0.34700003 0.21701479 1.051
-0.35029131 0.21701479 1.051
-0.35358259 0.21701479 1.051
-0.35687387 0.21701479 1.051
-0.36016515 0.21701479 1.051
-0.36345643 0.21701479 1.051
-0.36674771 0.21701479 1.051
-0.3696869 0.21680832 1.0500001
-0.37297505 0.21680832 1.0500001
-0.37626317 0.21680832 1.0500001
-0.38247484 0.21660182 1.049
-0.39195591 0.21639535 1.0480001
-0.40180156 0.21639535 1.0480001
-0.40836531 0.21639535 1.0480001
-0.41125438 0.21618886 1.0470001
-0.41453314 0.21618886 1.0470001
-0.41781187 0.21618886 1.0470001
-0.4210906 0.21618886 1.0470001
-0.43051526 0.21598236 1.046
-0.43379089 0.21598236 1.046
-0.4370665 0.21598236 1.046
-0.43992117 0.21577589 1.0450001
-0.44319364 0.21577589 1.0450001
-0.44689333 0.21598236 1.046
-0.45016897 0.21598236 1.046
-0.45344457 0.21598236 1.046
-0.4567202 0.21598236 1.046
-0.45999581 0.21598236 1.046
-0.46327144 0.21598236 1.046
-0.46654707 0.21598236 1.046
-0.46982265 0.21598236 1.046
-0.47309828 0.21598236 1.046
-0.47637388 0.21598236 1.046
-0.48010808 0.21618886 1.0470001
-0.48338684 0.21618886 1.0470001
-0.48666561 0.21618886 1.0470001
-0.49041232 0.21639535 1.0480001
-0.49369422 0.21639535 1.0480001
-0.49697605 0.21639535 1.0480001
-0.50073522 0.21660182 1.049
-0.50402027 0.21660182 1.049
-0.5077889 0.21680832 1.0500001
-0.51107705 0.21680832 1.0500001
0.24801999 0.2491488 0.98300004
-0.5143652 0.21680832 1.0500001
0.24494165 0.2491488 0.98300004
-0.51765335 0.21680832 1.0500001
-0.5209415 0.21680832 1.0500001
-0.52422959 0.21680832 1.0500001
-0.016869286 0.23900388 0.99200004
-0.52751774 0.21680832 1.0500001
-0.019975798 0.23900388 0.99200004
-0.53080589 0.21680832 1.0500001
-0.026162423 0.23876294 0.99100006
-0.53409404 0.21680832 1.0500001
-0.029265804 0.23876294 0.99100006
-0.53738219 0.21680832 1.0500001
-0.032369185 0.23876294 0.99100006
-0.54067034 0.21680832 1.0500001
-0.035436772 0.23852202 0.99000007
-0.54395849 0.21680832 1.0500001
-0.038537022 0.23852202 0.99000007
-0.54724663 0.21680832 1.0500001
-0.041637272 0.23852202 0.99000007
-0.55053478 0.21680832 1.0500001
-0.044737518 0.23852202 0.99000007
-0.55382293 0.21680832 1.0500001
-0.047837768 0.23852202 0.99000007
-0.55711108 0.21680832 1.0500001
-0.56315047 0.21660182 1.049
-0.56643546 0.21660182 1.049
-0.56972051 0.21660182 1.049
-0.57574117 0.21639535 1.0480001
-0.60950655 0.21556941 1.044
-0.61931461 0.21556941 1.044
-0.62258399 0.21556941 1.044
-0.62972534 0.21577589 1.0450001
-0.63627028 0.21577589 1.0450001
-0.65450633 0.21639535 1.0480001
-0.65841585 0.21660182 1.049
-0.15044931 0.23900388 0.99200004
-0.66233164 0.21680832 1.0500001
-0.67741418 0.21742778 1.0530001
-0.6813581 0.21763425 1.054
-0.6853084 0.21784073 1.0550001
-0.68926483 0.2180472 1.056
-0.69388354 0.21846019 1.0580001
-0.70382315 0.21846019 1.0580001
-0.70713633 0.21846019 1.0580001
-0.71044958 0.21846019 1.0580001
-0.71376276 0.21846019 1.0580001
0.39989945 0.2190107 1.077
0.39315405 0.2190107 1.077
0.38978136 0.2190107 1.077
0.38569111 0.218604 1.075
0.38268039 0.21880735 1.0760001
0.37895826 0.218604 1.075
-0.31230244 0.2392448 0.99300003
0.36825469 0.21433358 1.054
-0.32195529 0.23948574 0.99400002
0.35835266 0.21433358 1.054
-0.32506803 0.23948574 0.99400002
0.35538885 0.21453695 1.0550001
0.35241875 0.21474028 1.056
0.34911186 0.21474028 1.056
0.3461324 0.21494365 1.057
0.34282234 0.21494365 1.057
0.33951226 0.21494365 1.057
0.3362022 0.21494365 1.057
-0.34825331 0.23732415 0.99800003
0.33289212 0.21494365 1.057
-0.35137856 0.23732415 0.99800003
0.32958207 0.21494365 1.057
-0.35450387 0.23732415 0.99800003
0.32627204 0.21494365 1.057
-0.35727084 0.23708636 0.99700004
0.32296196 0.21494365 1.057
-0.36039302 0.23708636 0.99700004
0.3196519 0.21494365 1.057
0.31634182 0.21494365 1.057
0.31273559 0.21474028 1.056
0.30942866 0.21474028 1.056
0.30612171 0.21474028 1.056
0.30281478 0.21474028 1.056
0.29950789 0.21474028 1.056
0.28600904 0.21453695 1.0550001
0.27279386 0.21453695 1.0550001
0.25957865 0.21453695 1.0550001
0.23975585 0.21453695 1.0550001
0.23645204 0.21453695 1.0550001
0.23314825 0.21453695 1.0550001
0.22984444 0.21453695 1.0550001
0.2263259 0.21433358 1.054
-0.72462738 0.22886583 1.0450001
0.21312323 0.21433358 1.054
0.20302843 0.21413024 1.0530001
0.19295238 0.21392688 1.052
-0.51080471 0.23900388 0.99200004
0.16989154 0.21392688 1.052
0.12058998 0.21413024 1.0530001
0.11729243 0.21413024 1.0530001
0.10760381 0.21453695 1.0550001
0.10109194 0.21474028 1.056
0.097784996 0.21474028 1.056
0.094478071 0.21474028 1.056
0.084637351 0.21494365 1.057
0.074707158 0.21494365 1.057
0.061350599 0.21453695 1.0550001
0.058046795 0.21453695 1.0550001
0.054742996 0.21453695 1.0550001
0.051390436 0.21433358 1.054
0.048089765 0.21433358 1.054
0.038151529 0.21413024 1.0530001
0.024985082 0.21433358 1.054
-0.67302114 0.2392448 0.99300003
0.0084897848 0.21453695 1.0550001
0.0051908987 0.21474028 1.056
-0.68509871 0.23708636 0.99700004
-0.0047298982 0.21474028 1.056
-0.014650695 0.21474028 1.056
-0.021264559 0.21474028 1.056
-0.024571491 0.21474028 1.056
-0.027852025 0.21453695 1.0550001
-0.031155827 0.21453695 1.0550001
-0.034459628 0.21453695 1.0550001
-0.044328969 0.21433358 1.054
-0.054179531 0.21413024 1.0530001
-0.057477068 0.21413024 1.0530001
-0.067369685 0.21413024 1.0530001
-0.070667215 0.21413024 1.0530001
-0.07396476 0.21413024 1.0530001
-0.077335656 0.21433358 1.054
-0.08063633 0.21433358 1.054
-0.083936997 0.21433358 1.054
-0.08732044 0.21453695 1.0550001
-0.090624243 0.21453695 1.0550001
-0.093928047 0.21453695 1.0550001
-0.097323999 0.21474028 1.056
-0.10063093 0.21474028 1.056
-0.10403629 0.21494365 1.057
-0.10734636 0.21494365 1.057
-0.11076111 0.215147 1.0580001
-0.11407431 0.215147 1.0580001
-0.12413111 0.21535034 1.059
-0.1389854 0.21270676 1.046
-0.14226101 0.21270676 1.046
-0.14553662 0.21270676 1.046
-0.14881223 0.21270676 1.046
-0.15368725 0.21494365 1.057
-0.15699732 0.21494365 1.057
-0.16030738 0.21494365 1.057
-0.16361745 0.21494365 1.057
-0.16692752 0.21494365 1.057
-0.17023757 0.21494365 1.057
-0.17338344 0.21474028 1.056
-0.17999731 0.21474028 1.056
-0.19322504 0.21474028 1.056
-0.19964966 0.21453695 1.0550001
-0.20295347 0.21453695 1.0550001
-0.20625728 0.21453695 1.0550001
-0.20956106 0.21453695 1.0550001
-0.21286488 0.21453695 1.0550001
-0.21616867 0.21453695 1.0550001
-0.2196805 0.21474028 1.056
-0.22981873 0.21494365 1.057
-0.2331288 0.21494365 1.057
-0.23666255 0.215147 1.0580001
-0.23997575 0.215147 1.0580001
-0.24351887 0.21535034 1.059
-0.24683522 0.21535034 1.059
-0.25015152 0.21535034 1.059
-0.26034614 0.2155537 1.0600001
-0.26366559 0.2155537 1.0600001
-0.26698506 0.2155537 1.0600001
-0.2703045 0.2155537 1.0600001
-0.27336583 0.21535034 1.059
-0.27668214 0.21535034 1.059
-0.2797341 0.215147 1.0580001
-0.28304729 0.215147 1.0580001
-0.28608981 0.21494365 1.057
-0.28912607 0.21474028 1.056
-0.29215607 0.21453695 1.0550001
-0.2954599 0.21453695 1.0550001
-0.29848048 0.21433358 1.054
-0.30149487 0.21413024 1.0530001
0.20430911 0.23661077 0.99500006
-0.3047924 0.21413024 1.0530001
0.20119318 0.23661077 0.99500006
-0.30808994 0.21413024 1.0530001
-0.31109175 0.21392688 1.052
-0.31768054 0.21392688 1.052
0.18853988 0.23637295 0.99400002
-0.32128009 0.21413024 1.0530001
0.18524055 0.23613515 0.99300003
-0.32457763 0.21413024 1.0530001
0.1821309 0.23613515 0.99300003
-0.32787517 0.21413024 1.0530001
0.17902127 0.23613515 0.99300003
-0.33148718 0.21433358 1.054
0.17591162 0.23613515 0.99300003
-0.33478788 0.21433358 1.054
0.17280197 0.23613515 0.99300003
-0.3384093 0.21453695 1.0550001
0.16969232 0.23613515 0.99300003
-0.34171313 0.21453695 1.0550001
-0.34534389 0.21474028 1.056
-0.34865084 0.21474028 1.056
-0.35229108 0.21494365 1.057
0.15492028 0.23419885 0.99800003
-0.35560116 0.21494365 1.057
0.15179497 0.23419885 0.99800003
-0.35891122 0.21494365 1.057
0.14866966 0.23419885 0.99800003
-0.3622213 0.21494365 1.057
0.14554435 0.23419885 0.99800003
-0.36553136 0.21494365 1.057
0.14241907 0.23419885 0.99800003
-0.36884141 0.21494365 1.057
-0.37179935 0.21474028 1.056
-0.3751063 0.21474028 1.056
0.12926696 0.23613515 0.99300003
-0.37805492 0.21453695 1.0550001
0.12615733 0.23613515 0.99300003
-0.38135871 0.21453695 1.0550001
0.12317159 0.23637295 0.99400002
-0.38466251 0.21453695 1.0550001
0.12005882 0.23637295 0.99400002
-0.38759857 0.21433358 1.054
-0.39089924 0.21433358 1.054
0.11694603 0.23637295 0.99400002
-0.39419991 0.21433358 1.054
0.36536777 0.2463208 0.98400003
0.11394779 0.23661077 0.99500006
-0.39750054 0.21433358 1.054
0.35956988 0.24657114 0.98500007
0.10771598 0.23661077 0.99500006
-0.40410191 0.21433358 1.054
-0.42639595 0.21392688 1.052
-0.43298477 0.21392688 1.052
-0.47296682 0.21413024 1.0530001
-0.47626436 0.21413024 1.0530001
-0.50738358 0.21474028 1.056
-0.51069051 0.21474028 1.056
-0.51399744 0.21474028 1.056
-0.51730442 0.21474028 1.056
-0.52061135 0.21474028 1.056
-0.52391827 0.21474028 1.056
-0.5272252 0.21474028 1.056
-0.020056346 0.23684856 0.99600005
-0.53053212 0.21474028 1.056
-0.023175385 0.23684856 0.99600005
-0.53383905 0.21474028 1.056
-0.53714597 0.21474028 1.056
-0.5404529 0.21474028 1.056
-0.54375988 0.21474028 1.056
-0.03884843 0.23419885 0.99800003
-0.54706681 0.21474028 1.056
-0.041973732 0.23419885 0.99800003
-0.55037373 0.21474028 1.056
-0.55368066 0.21474028 1.056
-0.045099031 0.23419885 0.99800003
-0.55698758 0.21474028 1.056
-0.048224334 0.23419885 0.99800003
-0.56029451 0.21474028 1.056
-0.051349636 0.23419885 0.99800003
-0.56360143 0.21474028 1.056
-0.054474939 0.23419885 0.99800003
-0.56690836 0.21474028 1.056
-0.06072554 0.23419885 0.99800003
-0.57021528 0.21474028 1.056
-0.063850842 0.23419885 0.99800003
-0.57352221 0.21474028 1.056
-0.072933249 0.23637295 0.99400002
-0.58289057 0.21453695 1.0550001
-0.59770507 0.21392688 1.052
-0.60042816 0.21372353 1.051
-0.60371947 0.21372353 1.051
-0.60701072 0.21372353 1.051
-0.60972136 0.21352018 1.0500001
-0.61958575 0.21352018 1.0500001
-0.6294502 0.21352018 1.0500001
-0.63992345 0.21372353 1.051
-0.64321476 0.21372353 1.051
-0.64650601 0.21372353 1.051
-0.6504156 0.21392688 1.052
-0.65371001 0.21392688 1.052
-0.65762895 0.21413024 1.0530001
-0.66155416 0.21433358 1.054
-0.66485482 0.21433358 1.054
-0.66878939 0.21453695 1.0550001
-0.16353211 0.23684856 0.99600005
-0.67273021 0.21474028 1.056
-0.67667735 0.21494365 1.057
-0.68063074 0.215147 1.0580001
-0.68394393 0.215147 1.0580001
-0.69650692 0.2159604 1.062
-0.45410201 0.22775151 1.011
-0.71114653 0.21636711 1.064
-0.45726803 0.22775151 1.011
-0.71447849 0.21636711 1.064
0.39542222 0.21503733 1.074
0.36336896 0.21203402 1.059
-0.32487038 0.23537219 1.003
0.35442117 0.21263468 1.062
-0.3280113 0.23537219 1.003
0.35109547 0.21263468 1.062
-0.33429325 0.23537219 1.003
0.34776974 0.21263468 1.062
-0.3374342 0.23537219 1.003
0.34476838 0.21283491 1.0630001
-0.34057516 0.23537219 1.003
0.34143952 0.21283491 1.0630001
-0.34371611 0.23537219 1.003
0.33811066 0.21283491 1.0630001
-0.3468571 0.23537219 1.003
0.3347818 0.21283491 1.0630001
-0.34999806 0.23537219 1.003
0.33145294 0.21283491 1.0630001
-0.35278693 0.23513754 1.0020001
0.32812411 0.21283491 1.0630001
-0.35592476 0.23513754 1.0020001
0.32479525 0.21283491 1.0630001
-0.35906258 0.23513754 1.0020001
0.32146639 0.21283491 1.0630001
0.31813753 0.21283491 1.0630001
0.31451252 0.21263468 1.062
0.30786106 0.21263468 1.062
-0.38026682 0.23466818 1
0.30092603 0.21243447 1.0610001
-0.38339838 0.23466818 1
0.29760343 0.21243447 1.0610001
-0.38652995 0.23466818 1
0.29428086 0.21243447 1.0610001
-0.39279309 0.23466818 1
0.29095826 0.21243447 1.0610001
-0.39592466 0.23466818 1
0.28763565 0.21243447 1.0610001
0.28431305 0.21243447 1.0610001
-0.40178561 0.23443353 0.99900007
0.28099048 0.21243447 1.0610001
-0.40491405 0.23443353 0.99900007
0.27766788 0.21243447 1.0610001
0.27434531 0.21243447 1.0610001
0.27102271 0.21243447 1.0610001
0.26770014 0.21243447 1.0610001
0.26437753 0.21243447 1.0610001
0.26105493 0.21243447 1.0610001
0.25748941 0.21223424 1.0600001
0.25416997 0.21223424 1.0600001
0.2508505 0.21223424 1.0600001
0.2411194 0.21243447 1.0610001
0.22782904 0.21243447 1.0610001
0.21433645 0.21223424 1.0600001
0.20086893 0.21203402 1.059
-0.48674002 0.23466818 1
0.19423628 0.21203402 1.059
-0.49103117 0.23684856 0.99600005
0.19073969 0.2118338 1.0580001
-0.49415022 0.23684856 0.99600005
0.18742649 0.2118338 1.0580001
-0.49726921 0.23684856 0.99600005
0.18411329 0.2118338 1.0580001
-0.50038826 0.23684856 0.99600005
0.1808001 0.2118338 1.0580001
-0.50350732 0.23684856 0.99600005
0.17748691 0.2118338 1.0580001
-0.51286441 0.23684856 0.99600005
0.17086051 0.2118338 1.0580001
-0.51910251 0.23684856 0.99600005
0.16092093 0.2118338 1.0580001
0.15760773 0.2118338 1.0580001
0.15414868 0.21163358 1.057
0.14752856 0.21163358 1.057
0.11796076 0.21203402 1.059
0.11475269 0.21223424 1.0600001
0.11143324 0.21223424 1.0600001
0.10821578 0.21243447 1.0610001
0.10489319 0.21243447 1.0610001
0.081788935 0.21283491 1.0630001
0.07846009 0.21283491 1.0630001
0.07513123 0.21283491 1.0630001
0.071802378 0.21283491 1.0630001
0.068409108 0.21263468 1.062
0.065083385 0.21263468 1.062
0.048363522 0.21223424 1.0600001
0.045044065 0.21223424 1.0600001
-0.63954651 0.23443353 0.99900007
0.041724604 0.21223424 1.0600001
-0.64331824 0.23466818 1
0.038368914 0.21203402 1.059
-0.64709628 0.23490286 1.001
0.035052586 0.21203402 1.059
-0.650231 0.23490286 1.001
0.031736262 0.21203402 1.059
0.028446773 0.21223424 1.0600001
0.025127314 0.21223424 1.0600001
0.021807855 0.21223424 1.0600001
0.015183248 0.21243447 1.0610001
0.011860658 0.21243447 1.0610001
0.0052203927 0.21263468 1.062
0.0018946709 0.21263468 1.062
-0.0014323985 0.21283491 1.0630001
-0.68539667 0.23513754 1.0020001
-0.0047612521 0.21283491 1.0630001
-0.68922162 0.23537219 1.003
-0.0080901058 0.21283491 1.0630001
-0.011418959 0.21283491 1.0630001
-0.014747812 0.21283491 1.0630001
-0.018076666 0.21283491 1.0630001
-0.021385381 0.21263468 1.062
-0.024711102 0.21263468 1.062
-0.028036825 0.21263468 1.062
-0.031362545 0.21263468 1.062
-0.041300789 0.21243447 1.0610001
-0.04458132 0.21223424 1.0600001
-0.047900777 0.21223424 1.0600001
-0.051220238 0.21223424 1.0600001
-0.054539695 0.21223424 1.0600001
-0.057859153 0.21223424 1.0600001
-0.061178613 0.21223424 1.0600001
-0.064498074 0.21223424 1.0600001
-0.071136989 0.21223424 1.0600001
-0.074456446 0.21223424 1.0600001
-0.077775903 0.21223424 1.0600001
-0.081171878 0.21243447 1.0610001
-0.084494464 0.21243447 1.0610001
-0.087817058 0.21243447 1.0610001
-0.091225535 0.21263468 1.062
-0.094551258 0.21263468 1.062
-0.097876981 0.21263468 1.062
-0.101298 0.21283491 1.0630001
-0.10805726 0.21303512 1.064
-0.11827513 0.21343558 1.0660001
-0.12161338 0.21343558 1.0660001
-0.12495162 0.21343558 1.0660001
-0.12828988 0.21343558 1.0660001
-0.13162813 0.21343558 1.0660001
-0.13496636 0.21343558 1.0660001
-0.13830462 0.21343558 1.0660001
-0.13951689 0.21023203 1.0500001
-0.14266902 0.21003181 1.049
-0.14595403 0.21003181 1.049
0.35671782 0.23537219 1.003
-0.15470505 0.21303512 1.064
0.3539294 0.23560686 1.0040001
-0.15803704 0.21303512 1.064
-0.16136901 0.21303512 1.064
-0.164701 0.21303512 1.064
-0.16787508 0.21283491 1.0630001
-0.17120391 0.21283491 1.0630001
-0.17453277 0.21283491 1.0630001
-0.17786163 0.21283491 1.0630001
-0.18119049 0.21283491 1.0630001
-0.18451934 0.21283491 1.0630001
-0.18784818 0.21283491 1.0630001
-0.19117704 0.21283491 1.0630001
-0.1945059 0.21283491 1.0630001
-0.19783475 0.21283491 1.0630001
-0.20097435 0.21263468 1.062
-0.20430008 0.21263468 1.062
-0.20762581 0.21263468 1.062
-0.21095151 0.21263468 1.062
-0.21427724 0.21263468 1.062
-0.21760297 0.21263468 1.062
-0.22092868 0.21263468 1.062
-0.2242544 0.21263468 1.062
-0.22779442 0.21283491 1.0630001
-0.23467268 0.21303512 1.064
-0.23800465 0.21303512 1.064
0.26930687 0.23584151 1.005
-0.24156348 0.21323535 1.0650001
0.26615965 0.23584151 1.005
-0.2448986 0.21323535 1.0650001
-0.24846682 0.21343558 1.0660001
-0.25180504 0.21343558 1.0660001
-0.25514331 0.21343558 1.0660001
-0.258724 0.21363579 1.067
-0.26206541 0.21363579 1.067
-0.26540676 0.21363579 1.067
-0.2684963 0.21343558 1.0660001
-0.27824977 0.21323535 1.0650001
0.23084907 0.23513754 1.0020001
-0.28132045 0.21303512 1.064
0.22771125 0.23513754 1.0020001
-0.28465244 0.21303512 1.064
-0.2877138 0.21283491 1.0630001
-0.29076886 0.21263468 1.062
-0.29381764 0.21243447 1.0610001
-0.29686016 0.21223424 1.0600001
-0.30017963 0.21223424 1.0600001
-0.30321276 0.21203402 1.059
-0.3065291 0.21203402 1.059
0.18046354 0.23176816 1.001
-0.32974339 0.21203402 1.059
0.17419414 0.23176816 1.001
-0.3330597 0.21203402 1.059
0.17105944 0.23176816 1.001
-0.33669367 0.21223424 1.0600001
-0.34001315 0.21223424 1.0600001
0.16792476 0.23176816 1.001
-0.34365654 0.21243447 1.0610001
-0.34697908 0.21243447 1.0610001
0.16181685 0.23199971 1.0020001
-0.35063183 0.21263468 1.062
0.15867902 0.23199971 1.0020001
-0.35395753 0.21263468 1.062
0.15240337 0.23199971 1.0020001
-0.3576197 0.21283491 1.0630001
0.14926554 0.23199971 1.0020001
-0.36094856 0.21283491 1.0630001
0.14612772 0.23199971 1.0020001
-0.36427742 0.21283491 1.0630001
0.14298989 0.23199971 1.0020001
-0.36760628 0.21283491 1.0630001
0.13985206 0.23199971 1.0020001
-0.37058619 0.21263468 1.062
0.13671423 0.23199971 1.0020001
-0.37391186 0.21263468 1.062
0.13357639 0.23199971 1.0020001
-0.37723759 0.21263468 1.062
-0.38020501 0.21243447 1.0610001
-0.39312449 0.21223424 1.0600001
-0.39644396 0.21223424 1.0600001
-0.39976338 0.21223424 1.0600001
-0.40270257 0.21203402 1.059
-0.40601888 0.21203402 1.059
-0.40933523 0.21203402 1.059
-0.41265157 0.21203402 1.059
0.34589389 0.24472252 0.99000007
-0.41596788 0.21203402 1.059
0.34279364 0.24472252 0.99000007
-0.41928422 0.21203402 1.059
0.33969337 0.24472252 0.99000007
-0.42260051 0.21203402 1.059
0.33659312 0.24472252 0.99000007
-0.42591685 0.21203402 1.059
-0.42882788 0.2118338 1.0580001
-0.4321411 0.2118338 1.0580001
0.32386467 0.24447531 0.98900002
-0.43876749 0.2118338 1.0580001
0.31425524 0.24422811 0.98800004
-0.44870704 0.2118338 1.0580001
0.26218715 0.24472252 0.99000007
-0.49981827 0.21243447 1.0610001
-0.51026648 0.21263468 1.062
-0.51359218 0.21263468 1.062
-0.51691794 0.21263468 1.062
-0.52073354 0.21283491 1.0630001
-0.5240624 0.21283491 1.0630001
-0.52739125 0.21283491 1.0630001
-0.029649716 0.23246278 1.0040001
-0.53737777 0.21283491 1.0630001
-0.035902102 0.23223123 1.003
-0.54403549 0.21283491 1.0630001
-0.54736435 0.21283491 1.0630001
-0.039043061 0.23223123 1.003
-0.55069321 0.21283491 1.0630001
-0.042184021 0.23223123 1.003
-0.55402207 0.21283491 1.0630001
-0.045324981 0.23223123 1.003
-0.55735093 0.21283491 1.0630001
-0.04841762 0.23199971 1.0020001
-0.56067979 0.21283491 1.0630001
-0.054693278 0.23199971 1.0020001
-0.56400865 0.21283491 1.0630001
-0.057831105 0.23199971 1.0020001
-0.56733745 0.21283491 1.0630001
-0.070452653 0.23223123 1.003
-0.58010662 0.21263468 1.062
-0.59561145 0.21223424 1.0600001
-0.60442728 0.2118338 1.0580001
-0.61047608 0.21163358 1.057
-0.61378616 0.21163358 1.057
-0.6165123 0.21143335 1.056
-0.61981928 0.21143335 1.056
-0.62312621 0.21143335 1.056
-0.62643313 0.21143335 1.056
-0.63966089 0.21143335 1.056
-0.64958167 0.21143335 1.056
-0.65350693 0.21163358 1.057
-0.65681696 0.21163358 1.057
-0.66075164 0.2118338 1.0580001
-0.66406482 0.2118338 1.0580001
-0.66800874 0.21203402 1.059
-0.18038623 0.23223123 1.003
-0.69050503 0.21283491 1.0630001
-0.69448656 0.21303512 1.064
-0.6991303 0.21343558 1.0660001
-0.7031275 0.21363579 1.067
-0.70646888 0.21363579 1.067
-0.70981026 0.21363579 1.067
-0.71315163 0.21363579 1.067
0.37139919 0.20950605 1.0630001
0.36841658 0.20970313 1.064
0.36474147 0.20950605 1.0630001
0.3617526 0.20970313 1.064
0.3560898 0.2102944 1.067
0.35307908 0.21049149 1.0680001
0.34973454 0.21049149 1.0680001
0.34639004 0.21049149 1.0680001
0.34336671 0.21068858 1.069
0.34001905 0.21068858 1.069
0.33667141 0.21068858 1.069
0.33332378 0.21068858 1.069
0.32997614 0.21068858 1.069
0.32662851 0.21068858 1.069
0.32328084 0.21068858 1.069
0.31993321 0.21068858 1.069
0.31658557 0.21068858 1.069
0.31294492 0.21049149 1.0680001
0.30960041 0.21049149 1.0680001
0.30625588 0.21049149 1.0680001
0.3029114 0.21049149 1.0680001
0.29928637 0.2102944 1.067
0.29594499 0.2102944 1.067
0.29260361 0.2102944 1.067
0.28926224 0.2102944 1.067
0.28592086 0.2102944 1.067
0.28257945 0.2102944 1.067
0.27923808 0.2102944 1.067
0.27589673 0.2102944 1.067
0.27255535 0.2102944 1.067
0.26921394 0.2102944 1.067
0.26587257 0.2102944 1.067
0.26253119 0.2102944 1.067
0.25894693 0.21009733 1.0660001
0.25560868 0.21009733 1.0660001
0.25227043 0.21009733 1.0660001
0.24893217 0.21009733 1.0660001
0.24582429 0.2102944 1.067
0.24248292 0.2102944 1.067
0.23914154 0.2102944 1.067
0.23580016 0.2102944 1.067
0.22243464 0.2102944 1.067
0.19533677 0.20990023 1.0650001
0.19200167 0.20990023 1.0650001
-0.49232095 0.2326943 1.005
0.18866655 0.20990023 1.0650001
-0.49546817 0.2326943 1.005
0.18533143 0.20990023 1.0650001
-0.49861541 0.2326943 1.005
0.1819963 0.20990023 1.0650001
0.17849344 0.20970313 1.064
0.17516145 0.20970313 1.064
0.17182946 0.20970313 1.064
0.16849747 0.20970313 1.064
0.1651655 0.20970313 1.064
0.16183351 0.20970313 1.064
-0.52327204 0.23246278 1.0040001
0.15850152 0.20970313 1.064
-0.52956021 0.23246278 1.0040001
0.15169486 0.20950605 1.0630001
-0.54159653 0.23223123 1.003
0.13837945 0.20950605 1.0630001
0.1186291 0.20990023 1.0650001
0.11540224 0.21009733 1.0660001
0.10224071 0.21049149 1.0680001
0.098896198 0.21049149 1.0680001
0.092293516 0.21068858 1.069
0.088945866 0.21068858 1.069
0.08559823 0.21068858 1.069
0.08225058 0.21068858 1.069
0.078902945 0.21068858 1.069
0.075555295 0.21068858 1.069
0.072207659 0.21068858 1.069
0.068795599 0.21049149 1.0680001
0.065451086 0.21049149 1.0680001
0.062106576 0.21049149 1.0680001
0.048637282 0.21009733 1.0660001
0.038622536 0.21009733 1.0660001
0.035284288 0.21009733 1.0660001
0.031946041 0.21009733 1.0660001
0.028607793 0.21009733 1.0660001
0.025269544 0.21009733 1.0660001
0.015269109 0.2102944 1.067
0.011938909 0.21049149 1.0680001
0.0085943984 0.21049149 1.0680001
0.0052548018 0.21068858 1.069
0.0019071592 0.21068858 1.069
-0.028221624 0.21068858 1.069
-0.031539738 0.21049149 1.0680001
-0.034884248 0.21049149 1.0680001
-0.038228761 0.21049149 1.0680001
-0.041573271 0.21049149 1.0680001
-0.044875722 0.2102944 1.067
-0.048217103 0.2102944 1.067
-0.051558483 0.2102944 1.067
-0.068265378 0.2102944 1.067
-0.074948139 0.2102944 1.067
-0.078289516 0.2102944 1.067
-0.081630901 0.2102944 1.067
-0.085051917 0.21049149 1.0680001
-0.08839643 0.21049149 1.0680001
-0.091740936 0.21049149 1.0680001
-0.095174477 0.21068858 1.069
-0.098522119 0.21068858 1.069
-0.10196506 0.21088567 1.0700001
-0.10531583 0.21088567 1.0700001
-0.12925264 0.21167402 1.074
-0.13261594 0.21167402 1.074
-0.13597924 0.21167402 1.074
0.36263785 0.23513754 1.0020001
-0.15374567 0.21778379 1.105
-0.15907677 0.21108277 1.0710001
-0.16243066 0.21108277 1.0710001
-0.16578457 0.21108277 1.0710001
0.34023008 0.23385197 1.01
-0.16898055 0.21088567 1.0700001
0.33706719 0.23385197 1.01
-0.17233132 0.21088567 1.0700001
0.33357376 0.23362045 1.0090001
-0.1756821 0.21088567 1.0700001
0.330414 0.23362045 1.0090001
-0.17903286 0.21088567 1.0700001
0.32725427 0.23362045 1.0090001
-0.18238364 0.21088567 1.0700001
0.3240945 0.23362045 1.0090001
-0.18573441 0.21088567 1.0700001
0.32093474 0.23362045 1.0090001
-0.18908519 0.21088567 1.0700001
0.31145552 0.23362045 1.0090001
-0.19913751 0.21088567 1.0700001
0.2988165 0.23362045 1.0090001
-0.21234196 0.21068858 1.069
0.29565677 0.23362045 1.0090001
-0.2156896 0.21068858 1.069
0.28933725 0.23362045 1.0090001
-0.21903725 0.21068858 1.069
0.28617752 0.23362045 1.0090001
-0.2223849 0.21068858 1.069
0.28301778 0.23362045 1.0090001
-0.22573254 0.21068858 1.069
0.27985802 0.23362045 1.0090001
-0.22929448 0.21088567 1.0700001
0.27669826 0.23362045 1.0090001
-0.23264526 0.21088567 1.0700001
0.27353853 0.23362045 1.0090001
-0.23599604 0.21088567 1.0700001
-0.2395705 0.21108277 1.0710001
-0.24292441 0.21108277 1.0710001
-0.24650826 0.21127984 1.072
0.25876153 0.23137432 1.013
-0.24986529 0.21127984 1.072
0.25558925 0.23137432 1.013
-0.25345856 0.21147695 1.0730001
0.24899867 0.23114593 1.0120001
-0.26353908 0.21147695 1.0730001
0.23949124 0.23114593 1.0120001
-0.27025941 0.21147695 1.0730001
0.23632209 0.23114593 1.0120001
-0.27336454 0.21127984 1.072
0.23315294 0.23114593 1.0120001
-0.27672157 0.21127984 1.072
-0.27981737 0.21108277 1.0710001
-0.2831713 0.21108277 1.0710001
-0.28625765 0.21088567 1.0700001
-0.28933775 0.21068858 1.069
-0.29241163 0.21049149 1.0680001
-0.29547918 0.2102944 1.067
0.21265689 0.2326943 1.005
-0.29854053 0.21009733 1.0660001
0.20950966 0.2326943 1.005
-0.30187878 0.21009733 1.0660001
-0.30493069 0.20990023 1.0650001
-0.3179723 0.20970313 1.064
0.17821459 0.2297755 1.006
-0.33161163 0.20990023 1.0650001
-0.3385995 0.21009733 1.0660001
-0.34193778 0.21009733 1.0660001
-0.34894124 0.2102944 1.067
-0.35261279 0.21049149 1.0680001
-0.35595733 0.21049149 1.0680001
-0.35930184 0.21049149 1.0680001
-0.36264634 0.21049149 1.0680001
-0.36599088 0.21049149 1.0680001
-0.36933538 0.21049149 1.0680001
-0.37267989 0.21049149 1.0680001
-0.3760244 0.21049149 1.0680001
-0.37901366 0.2102944 1.067
-0.38235506 0.2102944 1.067
-0.38569644 0.2102944 1.067
-0.38867325 0.21009733 1.0660001
-0.39201149 0.21009733 1.0660001
-0.39534974 0.21009733 1.0660001
-0.39868799 0.21009733 1.0660001
-0.40164906 0.20990023 1.0650001
-0.40498418 0.20990023 1.0650001
-0.40831929 0.20990023 1.0650001
0.34833959 0.24020854 0.99700004
-0.41165441 0.20990023 1.0650001
0.34521741 0.24020854 0.99700004
-0.41498953 0.20990023 1.0650001
0.34209523 0.24020854 0.99700004
-0.41832465 0.20990023 1.0650001
-0.4216598 0.20990023 1.0650001
0.33897308 0.24020854 0.99700004
-0.42499489 0.20990023 1.0650001
0.33585089 0.24020854 0.99700004
-0.42833 0.20990023 1.0650001
0.33272871 0.24020854 0.99700004
-0.43166512 0.20990023 1.0650001
-0.43833536 0.20990023 1.0650001
-0.44834071 0.20990023 1.0650001
-0.4516758 0.20990023 1.0650001
0.033331405 0.23315738 1.0070001
-0.47546771 0.21009733 1.0660001
0.030147951 0.23292585 1.006
-0.47880593 0.21009733 1.0660001
-0.48214418 0.21009733 1.0660001
0.026997596 0.23292585 1.006
-0.48548242 0.21009733 1.0660001
0.023847243 0.23292585 1.006
-0.48882067 0.21009733 1.0660001
0.017546535 0.23292585 1.006
-0.49262059 0.2102944 1.067
0.014396179 0.23292585 1.006
-0.49596196 0.2102944 1.067
0.011245826 0.23292585 1.006
-0.49930334 0.2102944 1.067
-0.50311583 0.21049149 1.0680001
-0.50646031 0.21049149 1.0680001
-0.50980484 0.21049149 1.0680001
-0.51362979 0.21068858 1.069
-0.51697743 0.21068858 1.069
-0.52032506 0.21068858 1.069
-0.52367276 0.21068858 1.069
-0.52702039 0.21068858 1.069
-0.53036803 0.21068858 1.069
-0.53421491 0.21088567 1.0700001
-0.53756571 0.21088567 1.0700001
-0.5409165 0.21088567 1.0700001
-0.54426724 0.21088567 1.0700001
-0.54761803 0.21088567 1.0700001
-0.55096883 0.21088567 1.0700001
-0.55431962 0.21088567 1.0700001
-0.55767035 0.21088567 1.0700001
-0.57442421 0.21088567 1.0700001
-0.58112574 0.21088567 1.0700001
-0.58727795 0.21068858 1.069
-0.59676212 0.21049149 1.0680001
-0.5995447 0.2102944 1.067
-0.092623688 0.2326943 1.005
-0.60232115 0.21009733 1.0660001
-0.095770918 0.2326943 1.005
-0.60565937 0.21009733 1.0660001
-0.60842633 0.20990023 1.0650001
-0.61118698 0.20970313 1.064
-0.6293993 0.20911188 1.0610001
-0.63272184 0.20911188 1.0610001
-0.63604444 0.20911188 1.0610001
-0.63936704 0.20911188 1.0610001
-0.64268965 0.20911188 1.0610001
-0.64601225 0.20911188 1.0610001
-0.64933485 0.20911188 1.0610001
-0.65265745 0.20911188 1.0610001
-0.65659827 0.20930895 1.062
-0.65992397 0.20930895 1.062
-0.66324967 0.20930895 1.062
-0.67053199 0.20950605 1.0630001
-0.67449462 0.20970313 1.064
-0.67782664 0.20970313 1.064
-0.68513393 0.20990023 1.0650001
-0.68846905 0.20990023 1.0650001
-0.6924538 0.21009733 1.0660001
-0.69644475 0.2102944 1.067
-0.69978613 0.2102944 1.067
-0.7031275 0.2102944 1.067
-0.70646888 0.2102944 1.067
0.39278904 0.20869865 1.0760001
0.38941947 0.20869865 1.0760001
0.3860499 0.20869865 1.0760001
0.38268039 0.20869865 1.0760001
0.37895826 0.20850468 1.075
0.37279671 0.20695302 1.067
0.36980161 0.20714699 1.0680001
0.36611396 0.20695302 1.067
-0.32461634 0.23114593 1.0120001
0.35473207 0.20811677 1.0730001
0.35169932 0.20831071 1.074
0.34833601 0.20831071 1.074
0.34529394 0.20850468 1.075
0.33887601 0.20869865 1.0760001
0.32876736 0.20869865 1.0760001
0.31836247 0.20850468 1.075
0.31499603 0.20850468 1.075
0.31133971 0.20831071 1.074
0.30797639 0.20831071 1.074
0.30461314 0.20831071 1.074
0.30124983 0.20831071 1.074
0.29088885 0.20811677 1.0730001
0.25056681 0.20811677 1.0730001
0.24720663 0.20811677 1.0730001
0.24384648 0.20811677 1.0730001
0.24048629 0.20811677 1.0730001
0.23712613 0.20811677 1.0730001
0.2339838 0.20831071 1.074
0.20688462 0.20811677 1.0730001
0.1660969 0.20753489 1.0700001
0.16274612 0.20753489 1.0700001
0.14920343 0.20734093 1.069
0.14585578 0.20734093 1.069
0.13258913 0.20753489 1.0700001
0.10617839 0.20831071 1.074
0.10281509 0.20831071 1.074
0.099544391 0.20850468 1.075
0.096177965 0.20850468 1.075
0.082789183 0.20869865 1.0760001
0.072612941 0.20850468 1.075
0.062455487 0.20831071 1.074
0.059037168 0.20811677 1.0730001
0.055677 0.20811677 1.0730001
0.05231683 0.20811677 1.0730001
0.048911031 0.2079228 1.072
0.045553997 0.2079228 1.072
0.042196959 0.2079228 1.072
0.038839921 0.2079228 1.072
0.035482883 0.2079228 1.072
0.032125849 0.2079228 1.072
-0.65103811 0.23114593 1.0120001
0.028795648 0.20811677 1.0730001
-0.66568226 0.23183116 1.0150001
0.01536928 0.20831071 1.074
-0.021667298 0.20869865 1.0760001
-0.025036862 0.20869865 1.0760001
-0.028380025 0.20850468 1.075
-0.031746458 0.20850468 1.075
-0.035112891 0.20850468 1.075
-0.038479321 0.20850468 1.075
-0.041845754 0.20850468 1.075
-0.045170125 0.20831071 1.074
-0.048533428 0.20831071 1.074
-0.051896729 0.20831071 1.074
-0.055260029 0.20831071 1.074
-0.082166433 0.20831071 1.074
-0.085609369 0.20850468 1.075
-0.088975802 0.20850468 1.075
-0.092342235 0.20850468 1.075
-0.095797703 0.20869865 1.0760001
-0.099167265 0.20869865 1.0760001
-0.10263212 0.2088926 1.077
-0.12321054 0.20947447 1.08
-0.1334803 0.20966844 1.0810001
-0.14025074 0.20966844 1.0810001
-0.15042131 0.21451738 1.1060001
-0.15388481 0.21451738 1.1060001
-0.15720604 0.21432342 1.105
0.35248879 0.22932841 1.018
-0.15688604 0.20928051 1.079
0.34930083 0.22932841 1.018
-0.16011648 0.20908657 1.0780001
0.34645292 0.2295537 1.0190001
-0.16349229 0.20908657 1.0780001
0.34326184 0.2295537 1.0190001
-0.16686812 0.20908657 1.0780001
0.34007078 0.2295537 1.0190001
-0.17008603 0.2088926 1.077
0.33687973 0.2295537 1.0190001
-0.17345871 0.2088926 1.077
-0.18694949 0.2088926 1.077
0.3209244 0.2295537 1.0190001
-0.19032219 0.2088926 1.077
0.3174215 0.22932841 1.018
-0.19369489 0.2088926 1.077
0.3142336 0.22932841 1.018
-0.19706759 0.2088926 1.077
0.31104568 0.22932841 1.018
-0.20044027 0.2088926 1.077
0.30785772 0.22932841 1.018
-0.20381297 0.2088926 1.077
-0.20699331 0.20869865 1.0760001
-0.21036288 0.20869865 1.0760001
-0.22047156 0.20869865 1.0760001
0.27944058 0.2295537 1.0190001
-0.23079453 0.2088926 1.077
0.27305844 0.2295537 1.0190001
-0.23416723 0.2088926 1.077
-0.23753993 0.2088926 1.077
0.26986736 0.2295537 1.0190001
-0.24113631 0.20908657 1.0780001
0.26667631 0.2295537 1.0190001
-0.24451214 0.20908657 1.0780001
0.25685081 0.22932841 1.018
-0.25487581 0.20928051 1.079
-0.26187623 0.20947447 1.08
-0.26525831 0.20947447 1.08
-0.2686404 0.20947447 1.08
-0.69476616 0.24206527 0.96700007
0.2374897 0.22910316 1.0170001
-0.27177063 0.20928051 1.079
-0.69779438 0.24206527 0.96700007
0.23430489 0.22910316 1.0170001
-0.27514955 0.20928051 1.079
-0.27827039 0.20908657 1.0780001
-0.28164622 0.20908657 1.0780001
-0.28475764 0.2088926 1.077
0.22452949 0.22887787 1.016
-0.28786284 0.20869865 1.0760001
0.22134781 0.22887787 1.016
-0.29096174 0.20850468 1.075
0.21477289 0.22865261 1.0150001
-0.29405436 0.20831071 1.074
-0.29714075 0.20811677 1.0730001
-0.30022085 0.2079228 1.072
-0.30357787 0.2079228 1.072
0.20166057 0.22820204 1.013
-0.30664861 0.20772886 1.0710001
-0.32311615 0.20753489 1.0700001
-0.32646692 0.20753489 1.0700001
-0.32981771 0.20753489 1.0700001
-0.33347988 0.20772886 1.0710001
-0.33683378 0.20772886 1.0710001
-0.3401877 0.20772886 1.0710001
-0.34386235 0.2079228 1.072
-0.34721938 0.2079228 1.072
-0.35090345 0.20811677 1.0730001
-0.3542636 0.20811677 1.0730001
-0.35795707 0.20831071 1.074
-0.36132035 0.20831071 1.074
-0.36468366 0.20831071 1.074
-0.36804697 0.20831071 1.074
-0.37141028 0.20831071 1.074
-0.37477359 0.20831071 1.074
-0.37813684 0.20831071 1.074
-0.38114497 0.20811677 1.0730001
-0.38450515 0.20811677 1.0730001
-0.3878653 0.20811677 1.0730001
0.11918142 0.22820204 1.013
-0.39086086 0.2079228 1.072
-0.40726578 0.20772886 1.0710001
0.077787973 0.23091753 1.011
-0.43409705 0.20772886 1.0710001
0.071455948 0.23091753 1.011
-0.44080487 0.20772886 1.0710001
0.065123923 0.23091753 1.011
-0.44415876 0.20772886 1.0710001
0.061957911 0.23091753 1.011
-0.44751269 0.20772886 1.0710001
0.058791898 0.23091753 1.011
-0.45086661 0.20772886 1.0710001
0.055625886 0.23091753 1.011
-0.45422047 0.20772886 1.0710001
0.046127848 0.23091753 1.011
-0.46471569 0.2079228 1.072
0.036629815 0.23091753 1.011
-0.47142977 0.2079228 1.072
0.033463802 0.23091753 1.011
-0.47478679 0.2079228 1.072
-0.4853102 0.20811677 1.0730001
0.023965767 0.23091753 1.011
-0.48867038 0.20811677 1.0730001
0.014467731 0.23091753 1.011
-0.49539071 0.20811677 1.0730001
-0.0077324053 0.22887787 1.016
-0.51651269 0.20850468 1.075
-0.023617487 0.22865261 1.0150001
-0.53384101 0.20869865 1.0760001
-0.029945031 0.22842734 1.0140001
-0.53721052 0.20869865 1.0760001
-0.54058009 0.20869865 1.0760001
-0.5478279 0.2088926 1.077
-0.55120057 0.2088926 1.077
-0.5545733 0.2088926 1.077
-0.55794597 0.2088926 1.077
-0.57196736 0.20908657 1.0780001
-0.083926946 0.22842734 1.0140001
-0.59112358 0.20869865 1.0760001
-0.59449315 0.20869865 1.0760001
-0.087102346 0.22842734 1.0140001
-0.59730703 0.20850468 1.075
-0.090277761 0.22842734 1.0140001
-0.6006735 0.20850468 1.075
-0.093545333 0.22865261 1.0150001
-0.60347801 0.20831071 1.074
-0.60627633 0.20811677 1.0730001
-0.61798435 0.20753489 1.0700001
-0.62133509 0.20753489 1.0700001
-0.6268627 0.20714699 1.0680001
-0.63020724 0.20714699 1.0680001
-0.63295853 0.20695302 1.067
-0.63964128 0.20695302 1.067
-0.65239483 0.20675907 1.0660001
0.073588625 0.23708636 0.99700004
-0.68976194 0.20695302 1.067
-0.18444209 0.2302323 1.008
-0.69375294 0.20714699 1.0680001
-0.18759869 0.2302323 1.008
-0.69709748 0.20714699 1.0680001
-0.19075531 0.2302323 1.008
-0.70044202 0.20714699 1.0680001
-0.19391194 0.2302323 1.008
-0.70378649 0.20714699 1.0680001
-0.29867172 0.23068911 1.01
0.38389719 0.20418413 1.0700001
-0.30183461 0.23068911 1.01
0.38054645 0.20418413 1.0700001
-0.30499747 0.23068911 1.01
0.37719569 0.20418413 1.0700001
0.37384489 0.20418413 1.0700001
-0.3116315 0.23091753 1.011
0.3708404 0.20437497 1.0710001
-0.31479752 0.23091753 1.011
0.36748648 0.20437497 1.0710001
-0.31796351 0.23091753 1.011
0.36413258 0.20437497 1.0710001
0.35028204 0.20609239 1.08
0.34722117 0.20628323 1.0810001
0.34076563 0.20647404 1.082
0.33398896 0.20647404 1.082
0.33060059 0.20647404 1.082
0.32721224 0.20647404 1.082
0.3238239 0.20647404 1.082
0.32043552 0.20647404 1.082
0.31675416 0.20628323 1.0810001
0.30998373 0.20628323 1.0810001
0.29955071 0.20609239 1.08
0.28913644 0.20590156 1.079
0.2789996 0.20590156 1.079
0.27562061 0.20590156 1.079
0.27224165 0.20590156 1.079
0.26886269 0.20590156 1.079
0.26548374 0.20590156 1.079
0.26210478 0.20590156 1.079
0.25872582 0.20590156 1.079
0.25534686 0.20590156 1.079
0.25196791 0.20590156 1.079
0.24858893 0.20590156 1.079
0.24205516 0.20609239 1.08
0.2319089 0.20609239 1.08
0.2285268 0.20609239 1.08
0.2253532 0.20628323 1.0810001
0.22196798 0.20628323 1.0810001
0.19790457 0.20590156 1.079
0.1875937 0.20571074 1.0780001
0.17746621 0.20571074 1.0780001
0.17409039 0.20571074 1.0780001
0.17055619 0.20551991 1.077
0.12671115 0.20551991 1.077
0.12345298 0.20571074 1.0780001
0.12007716 0.20571074 1.0780001
0.11680958 0.20590156 1.079
0.10348522 0.20628323 1.0810001
0.093415886 0.20647404 1.082
0.086639181 0.20647404 1.082
0.083250821 0.20647404 1.082
0.079862475 0.20647404 1.082
0.076403446 0.20628323 1.0810001
0.073018223 0.20628323 1.0810001
0.069633 0.20628323 1.0810001
0.066186488 0.20609239 1.08
0.062804401 0.20609239 1.08
0.05942231 0.20609239 1.08
0.05598833 0.20590156 1.079
0.052609373 0.20590156 1.079
0.049230412 0.20590156 1.079
0.045851454 0.20590156 1.079
0.039093539 0.20590156 1.079
-0.64788508 0.22910316 1.0170001
0.035714582 0.20590156 1.079
0.025601413 0.20609239 1.08
0.022219323 0.20609239 1.08
-0.66257304 0.22977898 1.0200001
0.018837234 0.20609239 1.08
0.015469454 0.20628323 1.0810001
-0.66641992 0.23000424 1.021
0.012084234 0.20628323 1.0810001
-0.004846354 0.20647404 1.082
-0.0082423184 0.20666488 1.0830001
-0.69082516 0.23068006 1.024
-0.011633803 0.20666488 1.0830001
-0.018416772 0.20666488 1.0830001
-0.021788118 0.20647404 1.082
-0.025176471 0.20647404 1.082
-0.028564824 0.20647404 1.082
-0.031953178 0.20647404 1.082
-0.035341531 0.20647404 1.082
-0.038729884 0.20647404 1.082
-0.042118236 0.20647404 1.082
-0.045464534 0.20628323 1.0810001
-0.048849758 0.20628323 1.0810001
-0.062390644 0.20628323 1.0810001
-0.07931675 0.20628323 1.0810001
-0.099812403 0.20666488 1.0830001
-0.10320389 0.20666488 1.0830001
-0.1066938 0.20685571 1.0840001
-0.11018997 0.20704652 1.085
-0.11358771 0.20704652 1.085
-0.11709329 0.20723736 1.0860001
-0.12060511 0.20742817 1.087
-0.12400913 0.20742817 1.087
-0.12753035 0.20761901 1.0880001
-0.1309375 0.20761901 1.0880001
-0.13775177 0.20761901 1.0880001
-0.14709066 0.21124469 1.107
-0.15402393 0.21124469 1.107
-0.15749058 0.21124469 1.107
-0.57956934 0.24150898 0.97700006
-0.15790385 0.20723736 1.0860001
-0.58262885 0.24150898 0.97700006
-0.16130473 0.20723736 1.0860001
0.33532602 0.22747333 1.024
-0.17458612 0.20685571 1.0840001
0.3224991 0.22747333 1.024
-0.18816459 0.20685571 1.0840001
0.31929237 0.22747333 1.024
-0.19155921 0.20685571 1.0840001
0.31608567 0.22747333 1.024
-0.19495383 0.20685571 1.0840001
0.3093698 0.22725119 1.023
-0.19834845 0.20685571 1.0840001
0.3061662 0.22725119 1.023
-0.20174305 0.20685571 1.0840001
-0.20513767 0.20685571 1.0840001
0.30005205 0.22747333 1.024
-0.2085323 0.20685571 1.0840001
0.29043189 0.22747333 1.024
-0.22190586 0.20666488 1.0830001
0.28401846 0.22747333 1.024
-0.22529735 0.20666488 1.0830001
0.277605 0.22747333 1.024
-0.2322946 0.20685571 1.0840001
-0.24609987 0.20704652 1.085
-0.67372477 0.2412618 0.97600007
-0.24972759 0.20723736 1.0860001
-0.67608768 0.24101458 0.97500002
-0.25312847 0.20723736 1.0860001
-0.67914099 0.24101458 0.97500002
-0.25652933 0.20723736 1.0860001
-0.68219429 0.24101458 0.97500002
-0.25993022 0.20723736 1.0860001
-0.6866532 0.24150898 0.97700006
-0.26333112 0.20723736 1.0860001
-0.26673201 0.20723736 1.0860001
-0.27013287 0.20723736 1.0860001
-0.27353376 0.20723736 1.0860001
-0.28007734 0.20704652 1.085
-0.28321385 0.20685571 1.0840001
-0.28634405 0.20666488 1.0830001
-0.29258573 0.20628323 1.0810001
-0.31818894 0.20532909 1.0760001
0.18634945 0.22569621 1.016
-0.32155851 0.20532909 1.0760001
0.18316779 0.22569621 1.016
-0.32492802 0.20532909 1.0760001
0.15802489 0.22614048 1.018
-0.35286561 0.20590156 1.079
-0.35995683 0.20609239 1.08
-0.36333892 0.20609239 1.08
-0.366721 0.20609239 1.08
-0.37010312 0.20609239 1.08
-0.37348521 0.20609239 1.08
-0.37686729 0.20609239 1.08
-0.38024935 0.20609239 1.08
0.12602164 0.22591835 1.0170001
-0.38327622 0.20590156 1.079
0.11658175 0.22614048 1.018
-0.39304852 0.20571074 1.0780001
0.11350521 0.22636263 1.0190001
-0.39642435 0.20571074 1.0780001
0.10712308 0.22636263 1.0190001
-0.40317601 0.20571074 1.0780001
-0.41292006 0.20551991 1.077
-0.42978352 0.20551991 1.077
-0.46056506 0.20571074 1.0780001
-0.47450811 0.20590156 1.079
-0.6957494 0.24933189 0.96000004
-0.014165114 0.22680691 1.021
-0.52326435 0.20647404 1.082
-0.52713948 0.20666488 1.0830001
-0.53053099 0.20666488 1.0830001
-0.53392243 0.20666488 1.0830001
-0.54070538 0.20666488 1.0830001
-0.54748839 0.20666488 1.0830001
-0.55138856 0.20685571 1.0840001
-0.55478317 0.20685571 1.0840001
-0.58587462 0.20704652 1.085
-0.58872932 0.20685571 1.0840001
-0.59212393 0.20685571 1.0840001
-0.59551853 0.20685571 1.0840001
-0.59836066 0.20666488 1.0830001
-0.60175216 0.20666488 1.0830001
-0.094006144 0.22658478 1.0200001
-0.60458481 0.20647404 1.082
-0.10369029 0.22680691 1.021
-0.61361361 0.20609239 1.08
-0.61642438 0.20590156 1.079
-0.61922896 0.20571074 1.0780001
-0.62202722 0.20551991 1.077
-0.62481928 0.20532909 1.0760001
-0.6276049 0.20513827 1.075
-0.63097137 0.20513827 1.075
-0.6337477 0.20494743 1.074
-0.63651782 0.20475662 1.0730001
-0.63987797 0.20475662 1.0730001
-0.64263862 0.20456578 1.072
-0.64599568 0.20456578 1.072
-0.64935273 0.20456578 1.072
-0.65210092 0.20437497 1.0710001
-0.65545487 0.20437497 1.0710001
-0.65880877 0.20437497 1.0710001
-0.66216266 0.20437497 1.0710001
-0.67893219 0.20437497 1.0710001
0.073883861 0.23490286 1.001
-0.68770719 0.20399329 1.069
0.070749164 0.23490286 1.001
-0.69105482 0.20399329 1.069
-0.69440252 0.20399329 1.069
-0.69775015 0.20399329 1.069
-0.70109779 0.20399329 1.069
-0.28913528 0.22680691 1.021
0.39122903 0.202898 1.0810001
-0.29233262 0.22680691 1.021
0.38784382 0.202898 1.0810001
-0.29552993 0.22680691 1.021
0.38445863 0.202898 1.0810001
-0.2984347 0.22658478 1.0200001
0.38107339 0.202898 1.0810001
0.37489307 0.20139644 1.0730001
0.37187913 0.20158412 1.074
0.36851582 0.20158412 1.074
0.36549252 0.20177183 1.075
-0.31791124 0.22680691 1.021
0.36381039 0.2027103 1.08
0.36142948 0.20327339 1.0830001
0.35836866 0.2034611 1.0840001
0.35530147 0.20364878 1.085
0.34914836 0.20402415 1.087
0.34606245 0.20421186 1.0880001
0.3426553 0.20421186 1.0880001
-0.59357268 0.21779068 1.039
0.33955997 0.20439956 1.0890001
-0.59682637 0.21779068 1.039
0.33614972 0.20439956 1.0890001
-0.60275316 0.21758108 1.0380001
0.33273944 0.20439956 1.0890001
0.32932916 0.20439956 1.0890001
-0.60600364 0.21758108 1.0380001
0.32591888 0.20439956 1.0890001
0.32221246 0.20421186 1.0880001
0.31880531 0.20421186 1.0880001
0.31539816 0.20421186 1.0880001
0.31170425 0.20402415 1.087
0.30489624 0.20402415 1.087
0.29781401 0.20383647 1.0860001
0.29441312 0.20383647 1.0860001
0.29101223 0.20383647 1.0860001
0.28761134 0.20383647 1.0860001
0.28080961 0.20383647 1.0860001
0.27740872 0.20383647 1.0860001
0.27375552 0.20364878 1.085
0.27035779 0.20364878 1.085
0.26696002 0.20364878 1.085
0.26356226 0.20364878 1.085
0.26016453 0.20364878 1.085
0.2567668 0.20364878 1.085
0.25360256 0.20383647 1.0860001
0.25020167 0.20383647 1.0860001
0.24680081 0.20383647 1.0860001
0.24339993 0.20383647 1.0860001
0.24022003 0.20402415 1.087
0.22340533 0.20421186 1.0880001
0.20617992 0.20402415 1.087
0.19578762 0.20383647 1.0860001
0.18898585 0.20383647 1.0860001
0.18541408 0.20364878 1.085
0.1786186 0.20364878 1.085
0.16487551 0.2034611 1.0840001
0.16148089 0.2034611 1.0840001
0.15115747 0.20327339 1.0830001
0.38268039 0.21543778 1.0760001
0.13092935 0.2034611 1.0840001
0.12414011 0.2034611 1.0840001
0.12085687 0.20364878 1.085
0.11745913 0.20364878 1.085
0.10746361 0.20402415 1.087
0.097341046 0.20421186 1.0880001
0.087119624 0.20421186 1.0880001
0.076898187 0.20421186 1.0880001
0.070019484 0.20402415 1.087
0.066615477 0.20402415 1.087
0.063153319 0.20383647 1.0860001
0.059752438 0.20383647 1.0860001
0.056351557 0.20383647 1.0860001
0.03594628 0.20383647 1.0860001
0.025767347 0.20402415 1.087
0.018959327 0.20402415 1.087
0.015569625 0.20421186 1.0880001
-0.67420816 0.22836189 1.028
0.0087553421 0.20421186 1.0880001
0.005353115 0.20439956 1.0890001
-0.6780864 0.22858405 1.029
0.0019428405 0.20439956 1.0890001
-0.68197095 0.2288062 1.0300001
-0.0014674336 0.20439956 1.0890001
-0.68519646 0.2288062 1.0300001
-0.0048777079 0.20439956 1.0890001
-0.68775356 0.22858405 1.029
-0.0082879821 0.20439956 1.0890001
-0.021929078 0.20439956 1.0890001
-0.035570174 0.20439956 1.0890001
-0.03898045 0.20439956 1.0890001
-0.045800999 0.20439956 1.0890001
-0.052621547 0.20439956 1.0890001
-0.062852368 0.20439956 1.0890001
-0.066262648 0.20439956 1.0890001
-0.06967292 0.20439956 1.0890001
-0.073083192 0.20439956 1.0890001
-0.076493464 0.20439956 1.0890001
-0.079903737 0.20439956 1.0890001
-0.083314016 0.20439956 1.0890001
-0.086724289 0.20439956 1.0890001
-0.090134561 0.20439956 1.0890001
-0.26585364 0.24914809 0.97100008
-0.093544833 0.20439956 1.0890001
-0.26889437 0.24914809 0.97100008
-0.096955113 0.20439956 1.0890001
-0.10738278 0.20477495 1.0910001
0.12949127 0.21577589 1.0450001
-0.12835085 0.20552571 1.095
-0.13520899 0.20552571 1.095
-0.14735642 0.20815346 1.1090001
-0.15096532 0.20834114 1.11
-0.15777513 0.20815346 1.1090001
-0.58808631 0.23942569 0.98100007
-0.16561556 0.20496263 1.092
-0.59115839 0.23942569 0.98100007
-0.16903524 0.20496263 1.092
0.31440669 0.22536166 1.029
-0.19621275 0.20477495 1.0910001
0.30473953 0.22536166 1.029
-0.20646235 0.20477495 1.0910001
0.29185003 0.22536166 1.029
-0.21671197 0.20477495 1.0910001
