# .PCD v0.7 - Point Cloud Data file format
VERSION 0.7
FIELDS x y z
SIZE 4 4 4
TYPE F F F
COUNT 1 1 1
WIDTH 1513
HEIGHT 1
VIEWPOINT 0 0 0 1 0 0 0
POINTS 1513
DATA ascii
-0.78695601 0.74726999 1.4920001
-0.79736793 0.74827164 1.4940001
-0.5084219 0.73430282 1.457
-0.94875669 0.73762053 1.4820001
-0.99919552 0.74992633 1.488
-0.71472269 0.74901772 1.4590001
0.84436691 0.73911363 1.485
0.20169123 0.68834621 1.383
0.19777481 0.70970613 1.4170001
-0.51911718 0.68648821 1.388
-0.51818383 0.6838668 1.3740001
-0.5205853 0.67709106 1.3690001
-0.52103841 0.67640102 1.3590001
-0.52516437 0.66963798 1.337
-0.53016931 0.64197534 1.2980001
-0.53711516 0.64543742 1.3050001
0.28274298 0.70917171 1.4430001
0.20408562 0.67758566 1.3700001
-0.5093773 0.70474857 1.434
-0.51835865 0.70474857 1.434
-0.52212012 0.70825011 1.432
-0.52033365 0.69830066 1.4030001
-0.52096558 0.67329544 1.3700001
-0.52103841 0.66788942 1.3590001
-0.5205878 0.65658587 1.3360001
-0.52202207 0.65314573 1.3290001
-0.24780157 0.75103629 1.4810001
-0.51408714 0.57817346 1.169
-0.55711699 0.56615788 1.1520001
-0.56072456 0.56615788 1.1520001
0.92591065 0.76908195 1.4890001
0.21018243 0.66967225 1.3540001
0.19878733 0.68896115 1.393
0.19347383 0.69688535 1.4180001
-0.0066827731 0.72858083 1.4920001
-0.016027363 0.72858083 1.4920001
-0.020699657 0.72858083 1.4920001
-0.51888198 0.69786376 1.411
-0.52210921 0.6817016 1.396
-0.51941884 0.65093714 1.3330001
-0.52182871 0.64361227 1.3180001
0.19651866 0.68756151 1.4080001
-0.52218801 0.68756151 1.4080001
-0.51682103 0.65404063 1.348
-0.51021957 0.64045525 1.3200001
-0.52084368 0.64751887 1.3260001
-0.52064097 0.63802928 1.3150001
-0.51507485 0.60261017 1.2420001
0.64929956 0.7710889 1.475
-0.50130749 0.59859401 1.2180001
-0.51304615 0.57746142 1.1750001
0.20468149 0.66665566 1.3740001
0.19893004 0.67635953 1.3940001
0.19320093 0.68703377 1.416
-0.52035296 0.68654859 1.4150001
-0.52723515 0.67830032 1.3980001
-0.52172613 0.66998184 1.3720001
-0.51902914 0.64627755 1.332
-0.52159184 0.6155929 1.2770001
-0.51085138 0.5796417 1.187
0.21080334 0.65889257 1.358
0.21157949 0.6527819 1.363
0.20822376 0.6556555 1.3690001
0.19637908 0.67826092 1.4070001
0.17942904 0.69802547 1.4480001
-0.52044666 0.71710402 1.3800001
0.15913817 0.70402747 1.47
-0.49830234 0.68838423 1.4280001
-0.50724608 0.68838423 1.4280001
-0.51171792 0.68838423 1.4280001
-0.52029705 0.68790215 1.427
-0.52510124 0.67241806 1.404
-0.52248663 0.65805018 1.3740001
-0.51605427 0.64885521 1.3460001
-0.51747054 0.63601941 1.3280001
-0.51809406 0.63170898 1.319
-0.51571286 0.60794729 1.253
0.21914718 0.64565885 1.3570001
0.19320093 0.6781652 1.416
0.14962539 0.69799668 1.4670001
-0.50537467 0.6323365 1.3290001
-0.5114066 0.57702798 1.197
0.23469879 0.54025847 1.143
0.2277391 0.54431373 1.1440001
0.21699157 0.54431373 1.1440001
0.20319299 0.54574108 1.1470001
0.19977508 0.54621685 1.148
0.19907275 0.66810775 1.3950001
0.17586081 0.68820333 1.4560001
0.17177185 0.69923818 1.46
-0.50831169 0.67638665 1.4310001
-0.51727426 0.67638665 1.4310001
-0.52066171 0.67944056 1.4280001
-0.52108842 0.67864418 1.4170001
-0.52697122 0.66598797 1.409
-0.51337045 0.63709444 1.3390001
-0.51232338 0.57476485 1.2080001
-0.51370156 0.56753236 1.1850001
0.21235564 0.64660859 1.368
0.2024204 0.65606195 1.388
0.19651866 0.66992456 1.4080001
0.17818989 0.67519212 1.4380001
-0.50849277 0.66627091 1.419
-0.51738018 0.66627091 1.419
-0.52182388 0.66627091 1.419
-0.53062934 0.66504264 1.4070001
-0.51068664 0.62542135 1.332
-0.51750731 0.59886926 1.2670001
-0.48027575 0.77136505 1.4410001
-0.92726427 0.77307844 1.47
-0.51507485 0.58705258 1.2420001
-0.51226109 0.56672788 1.199
0.19921544 0.65547162 1.396
0.19333738 0.66976929 1.4170001
0.17955296 0.6758194 1.4490001
-0.50498414 0.62451494 1.3390001
-0.5094465 0.61472046 1.3180001
-0.51357394 0.61884785 1.3180001
-0.51530129 0.5878585 1.2520001
-0.5131712 0.56854647 1.2190001
-0.51962465 0.54700893 1.1650001
0.21284941 0.52859384 1.141
0.21648125 0.63757426 1.3670001
0.2024204 0.64736873 1.388
0.19665822 0.6571632 1.409
0.19009975 0.66955775 1.4260001
0.18421765 0.671745 1.45
-0.50772399 0.68566525 1.3690001
0.17967686 0.671745 1.45
-0.51338059 0.60958999 1.307
-0.042761739 0.7887156 1.4480001
-0.51439816 0.59252542 1.279
-0.52007061 0.54017562 1.166
0.19907275 0.64626503 1.3950001
0.19320093 0.6559937 1.416
0.17980079 0.66766441 1.4510001
-0.53326923 0.65506721 1.414
-0.042879865 0.78180033 1.452
-0.51398444 0.59669489 1.2880001
0.18320127 0.71771169 1.442
-0.52330279 0.5396294 1.1570001
-0.55894351 0.52859384 1.141
-0.56202364 0.52456057 1.1400001
0.23848662 0.52998364 1.1440001
0.2277391 0.52998364 1.1440001
0.20266153 0.52998364 1.1440001
0.20212874 0.63775522 1.386
0.19850193 0.63569987 1.391
0.19651866 0.64787835 1.4080001
0.18797736 0.66444343 1.4440001
0.18434469 0.66766441 1.4510001
0.18128777 0.66860455 1.4630001
0.17670628 0.66860455 1.4630001
-0.51893812 0.67624414 1.376
0.16754334 0.66860455 1.4630001
0.63552785 0.74891835 1.4860001
-0.51227874 0.56029338 1.2260001
-0.53891808 0.52998364 1.1440001
-0.54560572 0.52952033 1.143
0.19258502 0.52824169 1.148
0.21648125 0.62901253 1.3670001
0.19821651 0.63043618 1.3890001
0.1930645 0.64666814 1.4150001
-0.51118064 0.57687861 1.271
-0.48828226 0.75624955 1.4380001
-0.51341599 0.56190062 1.238
-0.5131712 0.55709434 1.2190001
0.18680574 0.7097339 1.4350001
-0.52955562 0.52059776 1.1470001
-0.54417372 0.51742065 1.1400001
0.22929958 0.51469737 1.1340001
0.21566384 0.51961958 1.1370001
0.20177577 0.51696676 1.1390001
0.19820891 0.5133999 1.1390001
0.1840906 0.65313125 1.4490001
0.17955296 0.65313125 1.4490001
-0.50148511 0.58957601 1.3080001
-0.51227874 0.55645412 1.2260001
0.23410881 0.50267118 1.123
0.22707532 0.50267118 1.123
0.21142428 0.60965109 1.3620001
0.1972176 0.61860341 1.3820001
0.19347383 0.63915807 1.4180001
0.18758681 0.64501268 1.4410001
0.17856164 0.64501268 1.4410001
-0.50599176 0.57205147 1.2780001
-0.4829421 0.74842161 1.4490001
-0.5101552 0.55907065 1.2490001
-0.51258659 0.55712229 1.2360001
0.18667556 0.69576728 1.434
-0.52955562 0.51700586 1.1470001
-0.53221786 0.51969004 1.1450001
-0.55050302 0.50625211 1.131
0.21414641 0.50182134 1.1290001
0.19481295 0.50671071 1.1400001
0.21080334 0.60360795 1.358
-0.47642347 0.74080366 1.4430001
-0.50933832 0.55427039 1.2470001
-0.5099507 0.55071449 1.2390001
-0.51429439 0.53864169 1.1950001
-0.51760525 0.52684236 1.177
-0.53035855 0.50715512 1.141
-0.54952949 0.50182134 1.1290001
-0.5591439 0.50446165 1.1270001
-0.56267315 0.50446165 1.1270001
0.24049811 0.49431363 1.12
0.23741397 0.49870998 1.1220001
-0.43174329 0.79525191 1.46
0.21018243 0.59758991 1.3540001
0.20348974 0.60716385 1.3660001
0.19935787 0.60332745 1.3670001
0.19579054 0.6055342 1.3720001
0.18701267 0.64966935 1.4720001
-0.51092774 0.54760313 1.2320001
0.18307422 0.69916368 1.4410001
-0.52285051 0.51744246 1.156
-0.54647756 0.49872714 1.13
0.2437876 0.49036807 1.1190001
0.23677917 0.49036807 1.1190001
0.22355857 0.49915445 1.123
0.20639858 0.59891397 1.3570001
0.19749567 0.6289435 1.4150001
-0.47873458 0.74893808 1.45
-0.9162699 0.74690247 1.4820001
-0.50555003 0.55477881 1.2570001
-0.51543558 0.5284903 1.189
0.18680574 0.68726492 1.4350001
-0.52596366 0.50982207 1.1470001
-0.54855603 0.49740312 1.1270001
-0.55815154 0.49652037 1.125
-0.56167454 0.49652037 1.125
0.2437876 0.48686385 1.1190001
0.21061087 0.4982858 1.1290001
0.20707533 0.49475026 1.1290001
0.20390037 0.49916852 1.131
0.19716479 0.49650311 1.133
0.21268056 0.58432364 1.3430001
0.19507703 0.59904659 1.3670001
-0.50233257 0.54342532 1.2490001
0.18332832 0.6865775 1.4430001
-0.52057791 0.50789684 1.159
-0.53112406 0.4973796 1.1350001
-0.53538734 0.49121472 1.1290001
-0.53866947 0.6781168 1.3290001
-0.56017679 0.48816913 1.1220001
0.23677917 0.48686385 1.1190001
0.22626652 0.48335963 1.1190001
0.22762354 0.57536638 1.332
-0.87883234 0.77556574 1.4660001
0.21430235 0.5732066 1.327
-0.44941515 0.78959674 1.4580001
0.20502968 0.58649904 1.348
-0.48653257 0.5481531 1.2690001
-0.49807322 0.5434016 1.258
-0.51064533 0.52776212 1.2130001
-0.51232338 0.52936965 1.2080001
0.24773382 0.48422351 1.1210001
0.23720236 0.48422351 1.1210001
0.22687313 0.48816913 1.1220001
0.21357737 0.48990944 1.126
0.20000426 0.48767918 1.1290001
0.19681676 0.48854309 1.131
0.21204711 0.57839012 1.3390001
0.42004773 0.79379797 1.4490001
0.19498336 0.59906882 1.3970001
-0.5085181 0.52569133 1.217
-0.51226109 0.51791614 1.199
-0.51774794 0.50861824 1.169
0.1840906 0.6758194 1.4490001
-0.52058899 0.49718222 1.151
0.18706609 0.67922264 1.437
-0.52282715 0.49948138 1.148
-0.53185183 0.48767918 1.1290001
-0.54405951 0.48947436 1.125
-0.55666322 0.48816913 1.1220001
0.19646871 0.48060814 1.1290001
-0.50460011 0.52573973 1.2260001
-0.51479268 0.50189281 1.179
-0.51967955 0.49977398 1.1570001
-0.52784836 0.48018244 1.128
0.22296135 0.47677687 1.12
-0.51413512 0.5085867 1.1860001
-0.52100551 0.48699355 1.1440001
-0.5249387 0.48757428 1.1370001
-0.5304386 0.47933105 1.126
-0.53765368 0.4763512 1.1190001
-0.54417539 0.47942659 1.118
-0.55368638 0.47507411 1.1160001
0.21300833 0.47805396 1.123
0.23005459 0.66626519 1.322
0.20317924 0.47975677 1.1270001
0.21014675 0.5565843 1.327
-0.49163729 0.51673841 1.2320001
-0.51968443 0.489122 1.149
-0.53111941 0.46976215 1.12
-0.52595609 0.65186709 1.3180001
-0.55219799 0.46682614 1.113
0.2227813 0.66928911 1.3280001
0.19646871 0.4770726 1.1290001
0.20614642 0.55700374 1.3280001
-0.50304818 0.50876921 1.2130001
-0.51012492 0.49706092 1.194
-0.5169484 0.48611996 1.159
-0.52183664 0.47731191 1.138
-0.52738041 0.47622749 1.1270001
-0.54871255 0.46682614 1.113
-0.54872507 0.46042663 1.1060001
-0.55218852 0.46042663 1.1060001
0.21945399 0.46976215 1.12
0.20107509 0.54620725 1.322
0.81835032 0.75979859 1.48
-0.49708474 0.50663579 1.217
-0.51171213 0.49497944 1.189
-0.51641923 0.48905596 1.166
0.19129953 0.65580833 1.4350001
-0.51877987 0.4774949 1.1470001
-0.52055007 0.47940907 1.143
-0.53367209 0.4689233 1.118
-0.54028141 0.45861578 1.11
0.2124393 0.45924008 1.12
0.23454885 0.65483463 1.3240001
0.20281866 0.46833628 1.125
0.2227813 0.65681297 1.3280001
0.1962947 0.46958521 1.128
0.2087215 0.54455459 1.3180001
-0.31244051 0.77133346 1.4580001
-0.50850636 0.49914241 1.199
-0.51391941 0.48998386 1.177
-0.52431595 0.4660528 1.128
-0.54822886 0.45654994 1.105
-0.52565944 0.64233363 1.307
-0.55168921 0.45654994 1.105
-0.49246299 0.4981935 1.215
-0.50138932 0.49951938 1.2090001
-0.51128179 0.48712257 1.1880001
-0.5169484 0.47886097 1.159
-0.52137816 0.46977133 1.1370001
-0.50790036 0.64165896 1.314
-0.53777266 0.45944214 1.1120001
-0.53979474 0.45472974 1.1090001
-0.52156645 0.6341477 1.307
-0.55314004 0.44800162 1.1010001
0.20911849 0.45965013 1.1210001
0.19116621 0.64636999 1.434
-0.51832753 0.46990103 1.146
-0.52969682 0.45801002 1.1170001
0.1925914 0.45858112 1.1270001
0.18939765 0.45939493 1.1290001
0.17879103 0.45939493 1.1290001
-0.48544064 0.48357382 1.207
-0.49422562 0.48856497 1.21
-0.50308615 0.48991278 1.2040001
-0.50765812 0.48706439 1.197
-0.51348275 0.47851941 1.176
-0.51605636 0.46716502 1.1570001
-0.52046102 0.45828202 1.1350001
-0.52385116 0.45858112 1.1270001
-0.53080803 0.44899526 1.1120001
-0.54969221 0.44800162 1.1010001
0.17863266 0.44839078 1.128
-0.49719164 0.48775741 1.2080001
-0.51085138 0.47927818 1.187
0.19388315 0.63161039 1.4210001
-0.51872838 0.45633024 1.1390001
-0.53583819 0.44738016 1.108
0.25102016 0.44871804 1.12
0.2475128 0.44871804 1.12
0.21829332 0.52294523 1.3260001
0.2099884 0.52294523 1.3260001
0.19753104 0.52294523 1.3260001
-0.50225043 0.47780648 1.202
-0.50765812 0.47956744 1.197
-0.51787531 0.45873412 1.1450001
-0.52619886 0.44751617 1.1170001
-0.5476951 0.43950331 1.097
-0.52203977 0.62978101 1.2980001
-0.55456573 0.43950331 1.097
-0.47788107 0.47979403 1.207
-0.48962578 0.47640863 1.2080001
-0.4963685 0.47939655 1.2060001
-0.51348275 0.46747121 1.176
-0.51605636 0.45991856 1.1570001
0.18889995 0.62095761 1.4170001
-0.52078354 0.44839078 1.128
0.23942447 0.43623975 1.115
0.22894938 0.43973145 1.115
0.21536824 0.43702227 1.1170001
0.20191725 0.43819597 1.12
-0.51085138 0.46812668 1.187
-0.51827294 0.44880214 1.138
0.24877891 0.42733145 1.11
0.23550957 0.42848641 1.113
0.20524117 0.43780476 1.1190001
0.19320199 0.66070509 1.22
-0.47748518 0.46806654 1.2060001
-0.48881516 0.46806654 1.2060001
-0.49848628 0.46651405 1.202
-0.5018326 0.46988696 1.2010001
-0.51742297 0.44758591 1.1440001
0.23466319 0.4234736 1.1090001
0.19507656 0.42805582 1.1210001
-0.48777923 0.51673841 1.2320001
-0.47966555 0.45898581 1.202
-0.51283461 0.45913988 1.1830001
-0.51479268 0.45020321 1.179
-0.51561034 0.44866076 1.156
0.22424448 0.4200007 1.1090001
0.22156784 0.42848641 1.113
0.21168059 0.42964137 1.1160001
0.20155668 0.42691025 1.118
0.19823274 0.42729211 1.1190001
0.18755232 0.42340916 1.118
-0.48719385 0.45898581 1.202
-0.49807161 0.45860398 1.2010001
-0.51781756 0.43772602 1.1370001
-0.52223295 0.42614657 1.1160001
0.22097062 0.41690335 1.11
-0.50957191 0.47587079 1.2670001
-0.51818234 0.47286606 1.2590001
-0.52005142 0.47098812 1.2540001
-0.50977868 0.45898581 1.202
-0.51650244 0.43855798 1.1580001
-0.51742297 0.43683839 1.1440001
-0.50967729 0.60186422 1.3080001
-0.53196931 0.41659218 1.1
-0.53492731 0.41965508 1.0990001
0.24657354 0.40751365 1.085
0.2302196 0.40864041 1.0880001
0.18738458 0.41953251 1.1170001
-0.50757545 0.47748992 1.2820001
-0.51353961 0.47587079 1.2670001
-0.51456857 0.44954085 1.187
-0.51774794 0.43540227 1.169
0.18623376 0.59906882 1.3970001
-0.52542883 0.41962194 1.108
0.22979641 0.40108749 1.0860001
0.21111155 0.41803011 1.113
0.20137641 0.41953251 1.1170001
0.19805558 0.41990808 1.118
-0.51637685 0.47052065 1.274
-0.51791573 0.46830469 1.268
-0.52147132 0.46482638 1.248
-0.51698858 0.45020777 1.2190001
-0.51515514 0.44957957 1.197
-0.5559665 0.40709555 1.0930001
0.18805559 0.41401386 1.1210001
-0.51721346 0.47092536 1.286
-0.52065188 0.46323532 1.2650001
-0.52171028 0.46067193 1.258
-0.51868498 0.44785514 1.223
-0.51909697 0.44492558 1.215
-0.51951957 0.42954546 1.1730001
0.86639535 0.80804133 1.475
-0.51962465 0.42661592 1.1650001
-0.056832373 0.7723915 1.46
-0.55785388 0.39915136 1.09
-0.49726772 0.4749535 1.2970001
-0.50945264 0.4749535 1.2970001
-0.51597971 0.47753787 1.2930001
-0.51842004 0.46798736 1.289
-0.51759279 0.46762961 1.2770001
-0.52411658 0.4520126 1.245
-0.52038145 0.44547752 1.2270001
-0.52080595 0.44257301 1.2190001
0.73966938 0.77821094 1.4710001
0.23275878 0.39592382 1.1
0.18788783 0.40312245 1.12
-0.5208354 0.46251106 1.2850001
-0.52481413 0.45207304 1.256
-0.52495855 0.44883367 1.2470001
-0.52308875 0.43119708 1.1980001
-0.52084821 0.42327857 1.176
0.855995 0.80694568 1.473
-0.52051669 0.42003921 1.1670001
0.41694388 0.78287727 1.4540001
-0.49891007 0.59548759 1.312
-0.52270091 0.4090386 1.1170001
-0.043293308 0.77097487 1.4660001
-0.51074284 0.58954197 1.2900001
-0.54519874 0.39988372 1.092
0.19023304 0.74152708 1.427
-0.49956813 0.46898982 1.3030001
-0.50772899 0.46898982 1.3030001
-0.51837403 0.4634822 1.299
-0.52043098 0.4616982 1.294
-0.52147502 0.45999998 1.2670001
-0.52078354 0.40953431 1.128
-0.029540824 0.77150083 1.4670001
-0.52804416 0.39212236 1.0990001
-0.034134831 0.77150083 1.4670001
-0.50788152 0.58686393 1.2930001
-0.53148574 0.39900553 1.0990001
-0.55529493 0.38712716 1.085
0.72995979 0.77768189 1.47
0.22037339 0.39844334 1.107
0.71858543 0.7710889 1.475
0.21729866 0.39916325 1.1090001
-0.49841791 0.45976797 1.3000001
-0.51430613 0.45941427 1.299
-0.51917213 0.46012166 1.3010001
-0.52240872 0.45634621 1.279
-0.52055007 0.40782151 1.143
-0.52091956 0.40532392 1.136
-0.52163756 0.45870695 1.2970001
-0.52205133 0.45955741 1.2880001
-0.52564979 0.44885343 1.258
-0.52507836 0.43080887 1.2290001
-0.51070243 0.56794018 1.2600001
-0.54710621 0.37807071 1.069
-0.5504539 0.37807071 1.069
0.20397091 0.43043423 1.2390001
0.20096175 0.44085634 1.2690001
0.19347015 0.44189855 1.2720001
0.18948679 0.44189855 1.2720001
-0.50656003 0.45976797 1.3000001
-0.51470208 0.45569694 1.3000001
-0.52526784 0.4467622 1.286
-0.52600247 0.44798514 1.2780001
-0.52585739 0.44845057 1.268
-0.53085226 0.43807709 1.261
0.19331804 0.43757093 1.271
0.18933782 0.43757093 1.271
-0.52646381 0.45065328 1.309
-0.52934712 0.44962052 1.3060001
-0.54866672 0.45547312 1.3230001
-0.51558548 0.41619062 1.1980001
-0.52082908 0.38666123 1.113
-0.85988188 0.77503669 1.465
0.20191725 0.38207835 1.12
-0.8696506 0.77556574 1.4660001
0.19840989 0.38909304 1.12
-0.530563 0.44655406 1.309
-0.53915519 0.4544403 1.3200001
-0.51968443 0.39197147 1.149
-0.48914444 0.56837118 1.2970001
-0.51926404 0.37354982 1.095
-0.49320608 0.56837118 1.2970001
-0.52068675 0.3780117 1.098
0.21326891 0.42183626 1.248
0.20969623 0.42251226 1.25
0.20479403 0.42048422 1.2440001
-0.69092578 0.78777182 1.4380001
-0.51967955 0.3983238 1.1570001
0.41636136 0.76742953 1.4680001
-0.52032185 0.38799563 1.1270001
-0.54913902 0.3582904 1.0600001
0.22073101 0.41725829 1.2460001
-0.51927245 0.44684896 1.322
-0.52341241 0.44684896 1.322
-0.53915519 0.44617295 1.3200001
-0.54370046 0.44651097 1.3210001
0.86933225 0.77833748 1.48
-0.51584619 0.39648554 1.1730001
-0.6968798 0.78941536 1.4410001
0.86411333 0.77781165 1.4790001
-0.51730508 0.39845315 1.1680001
0.21326891 0.41792804 1.248
0.8971405 0.80614573 1.48
0.19194916 0.41866437 1.2620001
-0.53036803 0.35798484 1.069
-0.5039413 0.54908949 1.253
-0.53867197 0.35463604 1.059
-0.548621 0.35463604 1.059
-0.49929649 0.73430282 1.457
-0.93947476 0.73762053 1.4820001
-0.55089492 0.35065627 1.057
0.20299779 0.41700563 1.2570001
0.19921976 0.41733736 1.258
0.88727123 0.80560106 1.4790001
0.18755022 0.41372648 1.2590001
0.88787109 0.80151111 1.48
0.18784814 0.41833261 1.261
0.17995034 0.41833261 1.261
-0.68499058 0.77714086 1.4350001
-0.50562334 0.38053635 1.1580001
-0.69929785 0.77404153 1.4460001
-0.51408714 0.3878119 1.169
-0.51968443 0.37757879 1.149
-0.52146095 0.37626436 1.1450001
-0.50304699 0.3566277 1.075
-0.51404774 0.35961345 1.0840001
-0.52563226 0.35932437 1.0730001
-0.49448049 0.5481531 1.2690001
-0.52937579 0.35397375 1.067
0.24353492 0.35868287 1.102
0.23663296 0.35868287 1.102
-0.52635515 0.42931283 1.319
-0.53461623 0.42931283 1.319
-0.48958576 0.3547771 1.09
-0.49299917 0.3547771 1.09
-0.49368006 0.35282421 1.0840001
-0.49478185 0.35119677 1.079
-0.51795411 0.35762295 1.0780001
-0.49322462 0.34910724 1.0830001
0.2374696 0.34795028 1.09
0.22080699 0.34858871 1.092
0.22017434 0.35998484 1.1060001
0.21729866 0.35748839 1.1090001
-0.52258337 0.33837366 1.0600001
0.21275623 0.39742944 1.245
0.24026217 0.33549023 1.072
0.23756811 0.33979553 1.075
0.20444122 0.35489359 1.1340001
0.21241446 0.38900593 1.243
0.20495865 0.38963184 1.245
0.20170583 0.394795 1.2490001
0.1929518 0.38900593 1.243
-0.3881112 0.3020038 0.96500003
-0.3971771 0.3020038 0.96500003
-0.4079926 0.30709007 0.96200007
-0.41746381 0.30439359 0.96300006
-0.42997265 0.30470967 0.96400005
-0.43646258 0.3020038 0.96500003
-0.48882067 0.3336125 1.0660001
-0.49930334 0.33726683 1.067
-0.50598609 0.33726683 1.067
-0.51740468 0.33933133 1.0630001
0.2259786 0.33924574 1.0840001
0.21918938 0.33924574 1.0840001
0.025779102 0.75414342 1.478
0.20743197 0.36931226 1.192
0.19621088 0.38775411 1.2390001
0.18936346 0.38963184 1.245
-0.68451321 0.78558052 1.434
0.17795248 0.38635269 1.2470001
-0.44434074 0.30022115 0.96900004
0.22155729 0.33092302 1.079
0.21797614 0.33061635 1.0780001
0.2046625 0.33768091 1.079
-0.49882025 0.51645923 1.25
-0.52952731 0.32985699 1.054
-0.50313693 0.51687241 1.251
-0.53942937 0.32985699 1.054
-0.54933137 0.32655632 1.054
-0.55540532 0.32954404 1.0530001
-0.37836137 0.29475933 0.97100008
-0.38444287 0.29475933 0.97100008
-0.41789731 0.29867202 0.96400005
-0.42739671 0.29898182 0.96500003
-0.43646258 0.29898182 0.96500003
-0.44434074 0.29718667 0.96900004
-0.48846543 0.32116926 1.0580001
-0.49887607 0.32478914 1.059
-0.508825 0.32810545 1.059
-0.51730442 0.32717595 1.056
-0.51913238 0.31965145 1.0530001
-0.52522814 0.31934789 1.052
-0.50313693 0.50903726 1.251
-0.5389176 0.31965145 1.0530001
-0.54881024 0.31965145 1.0530001
0.099852256 0.29718781 0.97900003
-0.37983096 0.29051685 0.96700007
-0.3889156 0.2996015 0.96700007
-0.39497206 0.29657328 0.96700007
-0.40926492 0.29293793 0.96500003
-0.52701533 0.31515217 1.049
-0.53687036 0.31515217 1.049
-0.54015541 0.31515217 1.049
0.15243658 0.29194811 0.98200005
0.20169123 0.67968434 1.383
0.14703102 0.29961631 0.98700005
0.13761888 0.29931274 0.98600006
0.12822555 0.2990092 0.98500007
0.11860942 0.2980985 0.98200005
0.11211547 0.29105619 0.97900003
0.10904966 0.29718781 0.97900003
-0.48819658 0.2925427 0.98400003
0.22977073 0.47985542 1.1190001
-0.68618298 0.28897512 0.97200006
0.11848864 0.28857875 0.98100007
-0.29868537 0.28504872 0.96900004
-0.44113085 0.28600213 0.96200007
-0.44876468 0.28210703 0.95900005
-0.45777419 0.28210703 0.95900005
-0.46978688 0.28210703 0.95900005
-0.47279006 0.28210703 0.95900005
-0.47929564 0.2824012 0.96000004
-0.48882321 0.28570479 0.96100003
-0.49785152 0.28570479 0.96100003
-0.50988925 0.28570479 0.96100003
-0.57970887 0.28298956 0.96200007
-0.58272141 0.28298956 0.96200007
-0.63920683 0.28534287 0.97000003
-0.64831966 0.28534287 0.97000003
0.24421158 0.30849853 1.0600001
0.23158734 0.30937165 1.0630001
0.22535282 0.30995372 1.0650001
0.21141514 0.3090806 1.062
0.15858698 0.2888729 0.98200005
0.099240288 0.2892724 0.97300005
0.089728847 0.2880832 0.96900004
0.077510841 0.28778592 0.96800005
0.068416774 0.28778592 0.96800005
0.059383992 0.28504872 0.96900004
0.050384313 0.28563705 0.97100008
0.044348437 0.28593123 0.97200006
0.0017341055 0.28288734 0.97200006
-0.0043491777 0.28259632 0.97100008
-0.010419934 0.28230527 0.97000003
-0.013443679 0.28201422 0.96900004
-0.025555223 0.2817232 0.96800005
-0.03760279 0.2811411 0.96600002
-0.049806062 0.2817232 0.96800005
-0.055868771 0.2817232 0.96800005
-0.11952722 0.2817232 0.96800005
-0.12255857 0.2817232 0.96800005
-0.13757308 0.28143215 0.96700007
-0.14968598 0.28143215 0.96700007
-0.15271421 0.28143215 0.96700007
-0.16785531 0.28143215 0.96700007
-0.17996819 0.28143215 0.96700007
-0.18924838 0.28475454 0.96800005
-0.19854733 0.28201422 0.96900004
-0.2076508 0.28201422 0.96900004
-0.21068528 0.28201422 0.96900004
-0.21697794 0.28230527 0.97000003
-0.2260908 0.28230527 0.97000003
-0.22889219 0.28201422 0.96900004
-0.23775005 0.2817232 0.96800005
-0.24935919 0.28416622 0.96600002
-0.25843447 0.28416622 0.96600002
-0.26778665 0.2844604 0.96700007
0.19310406 0.47749513 1.13
-0.27715766 0.2817232 0.96800005
0.21607879 0.66175884 1.3380001
0.18990092 0.4783403 1.1320001
-0.28351295 0.28201422 0.96900004
0.21315564 0.66993064 1.3460001
-0.28988078 0.28230527 0.97000003
-0.29899362 0.28230527 0.97000003
-0.30778885 0.28504872 0.96900004
-0.31959662 0.28475454 0.96800005
-0.32869071 0.28475454 0.96800005
-0.33743581 0.2844604 0.96700007
-0.34882572 0.28387204 0.96500003
-0.35752076 0.28659672 0.96400005
-0.36959606 0.28659672 0.96400005
-0.37904534 0.28689399 0.96500003
-0.3889156 0.28748861 0.96700007
-0.39758867 0.2871913 0.96600002
-0.40926492 0.28991598 0.96500003
-0.41833082 0.28991598 0.96500003
-0.42739671 0.28991598 0.96500003
-0.43646258 0.28991598 0.96500003
-0.44876468 0.27910388 0.95900005
-0.51999748 0.28328371 0.96300006
-0.52904457 0.28328371 0.96300006
-0.53865045 0.28357789 0.96400005
-0.51553345 0.47728166 1.164
-0.54770696 0.28357789 0.96400005
0.18434469 0.65857661 1.4510001
-0.5592016 0.28328371 0.96300006
0.17980079 0.65857661 1.4510001
-0.56765854 0.28298956 0.96200007
-0.6389339 0.28085008 0.96500003
-0.64765131 0.28201422 0.96900004
-0.65946585 0.2892724 0.97300005
0.2437876 0.4763512 1.1190001
-0.66860682 0.2892724 0.97300005
0.23327495 0.47985542 1.1190001
-0.67705137 0.28897512 0.97200006
-0.68870974 0.2844604 0.96700007
-0.69779438 0.2844604 0.96700007
-0.70998639 0.28026801 0.96300006
0.34159121 0.27897972 0.96900004
0.28264081 0.28070715 0.97500002
0.27958754 0.28070715 0.97500002
0.26207179 0.28157088 0.97800004
0.25900912 0.28157088 0.97800004
0.24701075 0.28185877 0.97900003
0.23757042 0.28769621 0.97800004
0.22838241 0.28769621 0.97800004
0.21963967 0.29884517 1.0380001
0.21680602 0.29942098 1.0400001
0.21416523 0.30028471 1.0430001
0.20238636 0.30719441 1.067
0.16322756 0.28013134 0.97300005
0.15197089 0.28185877 0.97900003
0.20198292 0.66765559 1.3850001
0.14658412 0.28946123 0.98400003
0.13733974 0.28946123 0.98400003
0.12796518 0.28916708 0.98300004
0.12131286 0.28185877 0.97900003
0.11518126 0.28799039 0.97900003
0.10882688 0.28740206 0.97700006
0.038300037 0.28622538 0.97300005
0.029159002 0.28622538 0.97300005
0.016970951 0.28317836 0.97300005
-0.010419934 0.27926764 0.97000003
-0.21068528 0.27897972 0.96900004
-0.47279006 0.27910388 0.95900005
0.19941807 0.30442259 1.069
0.19061522 0.30978554 1.0760001
0.17183714 0.27623004 0.97000003
0.13985038 0.27907777 0.98000002
-0.22889219 0.27897972 0.96900004
-0.30778885 0.27897972 0.96900004
-0.45777419 0.27910388 0.95900005
0.33855674 0.27897972 0.96900004
0.32911327 0.27869183 0.96800005
0.31968862 0.27840394 0.96700007
0.30789378 0.27566051 0.96800005
0.29910842 0.27594528 0.96900004
0.190303 0.27798033 0.98700005
0.18449436 0.27854362 0.98900002
0.18158066 0.27882525 0.99000007
0.17848043 0.27882525 0.99000007
0.165591 0.27291077 0.96900004
0.092763342 0.27291077 0.96900004
0.089728847 0.27897972 0.96900004
0.077510841 0.27869183 0.96800005
0.062418476 0.27897972 0.96900004
0.059383992 0.27897972 0.96900004
-0.013443679 0.27897972 0.96900004
-0.028557047 0.27840394 0.96700007
-0.034613494 0.27840394 0.96700007
-0.049806062 0.27869183 0.96800005
-0.058900125 0.27869183 0.96800005
0.19621503 0.66560692 1.215
-0.067994192 0.27869183 0.96800005
-0.077088252 0.27869183 0.96800005
-0.089213669 0.27869183 0.96800005
-0.50808227 0.46871322 1.1980001
-0.098307736 0.27869183 0.96800005
-0.51012492 0.46340913 1.194
-0.1074018 0.27869183 0.96800005
-0.11952722 0.27869183 0.96800005
-0.12862128 0.27869183 0.96800005
-0.13771535 0.27566051 0.96800005
-0.14968598 0.27840394 0.96700007
-0.15877064 0.27840394 0.96700007
-0.16785531 0.27840394 0.96700007
-0.17712297 0.27566051 0.96800005
-0.18924838 0.27869183 0.96800005
-0.19854733 0.27897972 0.96900004
-0.2076508 0.27897972 0.96900004
-0.23775005 0.27869183 0.96800005
-0.24658911 0.27840394 0.96700007
-0.25843447 0.27811602 0.96600002
-0.26778665 0.27840394 0.96700007
-0.27715766 0.27869183 0.96800005
0.21928106 0.6587913 1.332
0.18956539 0.4668791 1.13
-0.28351295 0.27897972 0.96900004
-0.31992677 0.27594528 0.96900004
-0.32869071 0.27869183 0.96800005
-0.33743581 0.27840394 0.96700007
-0.51905727 0.45134187 1.3110001
-0.34882572 0.2778281 0.96500003
-0.52316272 0.45134187 1.3110001
-0.35752076 0.27754021 0.96400005
-0.36959606 0.27754021 0.96400005
-0.37865254 0.27754021 0.96400005
-0.3881112 0.2778281 0.96500003
-0.3971771 0.2778281 0.96500003
-0.40926492 0.2778281 0.96500003
-0.41833082 0.2778281 0.96500003
-0.42997265 0.27754021 0.96400005
-0.43555799 0.27725232 0.96300006
-0.44923264 0.27638859 0.96000004
-0.45825154 0.270376 0.96000004
-0.46978688 0.27910388 0.95900005
-0.46727043 0.270376 0.96000004
-0.47929564 0.27939489 0.96000004
-0.48882321 0.27968591 0.96100003
-0.49785152 0.27968591 0.96100003
-0.50687981 0.27968591 0.96100003
-0.51999748 0.27725232 0.96300006
-0.52959394 0.27452141 0.96400005
-0.53865045 0.27754021 0.96400005
-0.51408714 0.46468866 1.169
-0.54770696 0.27754021 0.96400005
-0.5592016 0.27725232 0.96300006
-0.56765854 0.27997696 0.96200007
-0.57910621 0.27968591 0.96100003
-0.58752251 0.27939489 0.96000004
-0.59954774 0.27939489 0.96000004
-0.60856664 0.27939489 0.96000004
-0.61758554 0.27939489 0.96000004
-0.6279099 0.27997696 0.96200007
-0.6389339 0.2778281 0.96500003
-0.64765131 0.27897972 0.96900004
-0.65372032 0.27291077 0.96900004
-0.68942189 0.27869183 0.96800005
-0.69851601 0.27262914 0.96800005
-0.70998639 0.27725232 0.96300006
-0.71750486 0.27178422 0.96500003
0.40269607 0.27623004 0.97000003
0.39965844 0.27623004 0.97000003
0.38830701 0.27984345 0.97200006
0.37917534 0.27984345 0.97200006
0.36699983 0.27984345 0.97200006
0.35750002 0.27955556 0.97100008
0.34801894 0.27926764 0.97000003
0.33890611 0.2701548 0.97000003
0.29334185 0.27623004 0.97000003
0.28756276 0.27651483 0.97100008
0.27348098 0.2776539 0.97500002
0.26486337 0.27822345 0.97700006
0.25900912 0.27850825 0.97800004
0.24701075 0.27879301 0.97900003
0.23757042 0.27850825 0.97800004
0.22814889 0.27822345 0.97700006
0.21807379 0.27708438 0.97300005
0.20828855 0.27319241 0.97000003
0.19775571 0.27238289 0.97800004
0.16879952 0.27623004 0.97000003
0.15181567 0.27850825 0.97800004
0.20542632 0.65612638 1.3790001
0.14890508 0.27879301 0.97900003
0.13051027 0.27879301 0.97900003
0.12744448 0.27879301 0.97900003
0.1180055 0.27822345 0.97700006
0.10849271 0.27736914 0.97400004
0.099138297 0.27984345 0.97200006
0.092763342 0.2698763 0.96900004
0.056407657 0.27926764 0.97000003
0.041304559 0.27984345 0.97200006
0.038260676 0.27984345 0.97200006
0.02611199 0.27708438 0.97300005
0.010865749 0.27984345 0.97200006
0.0047779866 0.27984345 0.97200006
-0.0043491777 0.27955556 0.97100008
-0.13785762 0.2698763 0.96900004
-0.17730594 0.2698763 0.96900004
-0.18337491 0.2698763 0.96900004
-0.18963939 0.2701548 0.97000003
-0.19875224 0.2701548 0.97000003
-0.20786509 0.27319241 0.97000003
-0.21697794 0.27926764 0.97000003
-0.2260908 0.27926764 0.97000003
0.21785523 0.6503014 1.3490001
-0.28988078 0.27926764 0.97000003
-0.29899362 0.27926764 0.97000003
-0.30810648 0.27319241 0.97000003
-0.31418172 0.2701548 0.97000003
-0.31992677 0.2698763 0.96900004
-0.65878808 0.27984345 0.97200006
0.24662885 0.46808445 1.1160001
-0.6679197 0.27984345 0.97200006
0.23963921 0.46808445 1.1160001
-0.67869586 0.27926764 0.97000003
0.2295654 0.4689233 1.118
-0.68780869 0.2701548 0.97000003
0.21925806 0.46583852 1.1190001
-0.69388396 0.2701548 0.97000003
-0.69923759 0.2698763 0.96900004
0.33552223 0.2698763 0.96900004
0.29910842 0.2698763 0.96900004
0.059383992 0.2698763 0.96900004
-0.11965069 0.2698763 0.96900004
-0.12875415 0.2698763 0.96900004
-0.14696106 0.2698763 0.96900004
-0.15909901 0.2668418 0.96900004
-0.16820247 0.2668418 0.96900004
0.21993957 0.64821833 1.3360001
-0.28351295 0.2698763 0.96900004
0.32945326 0.2698763 0.96900004
0.31698787 0.2695978 0.96800005
0.30821186 0.2668418 0.96900004
0.089728847 0.2698763 0.96900004
0.062418476 0.2698763 0.96900004
-0.5114066 0.45707652 1.197
-0.10751275 0.2698763 0.96900004
-0.23496118 0.2698763 0.96900004
-0.32903025 0.2668418 0.96900004
-0.53299493 0.4403649 1.3150001
-0.36959606 0.26848376 0.96400005
-0.37865254 0.26848376 0.96400005
-0.38770902 0.26848376 0.96400005
-0.39978436 0.26848376 0.96400005
-0.40884081 0.26848376 0.96400005
-0.41789731 0.26848376 0.96400005
-0.42997265 0.2654649 0.96400005
-0.43555799 0.26820523 0.96300006
-0.44970056 0.26463878 0.96100003
-0.45825154 0.26736969 0.96000004
-0.46727043 0.26736969 0.96000004
0.22552708 0.65136349 1.189
-0.47979489 0.26463878 0.96100003
-0.48882321 0.26764822 0.96100003
-0.4983696 0.26792672 0.96200007
-0.50793475 0.26820523 0.96300006
-0.51751864 0.26848376 0.96400005
-0.56824863 0.26820523 0.96300006
-0.57970887 0.26491416 0.96200007
-0.58813453 0.26764822 0.96100003
-0.59954774 0.26736969 0.96000004
-0.60920054 0.26463878 0.96100003
-0.61822885 0.26463878 0.96100003
-0.6279099 0.26792672 0.96200007
-0.6389339 0.26876226 0.96500003
-0.71824837 0.26299056 0.96600002
0.4057337 0.26711717 0.97000003
0.39965844 0.26711717 0.97000003
0.37956545 0.26794332 0.97300005
0.3673774 0.26794332 0.97300005
0.35823634 0.2648963 0.97300005
0.34909531 0.26184928 0.97300005
0.31764278 0.26104194 0.97000003
0.29972577 0.26131105 0.97100008
0.2878589 0.26462406 0.97200006
0.19897036 0.26380733 0.96900004
0.18947501 0.26931927 0.96700007
0.17736213 0.26931927 0.96700007
-0.21720164 0.26739258 0.97100008
-0.22632389 0.26739258 0.97100008
-0.23216602 0.26711717 0.97000003
-0.25870201 0.26931927 0.96700007
0.2368518 0.64451659 1.337
-0.26806358 0.26656643 0.96800005
0.22412336 0.64821833 1.3360001
-0.27744398 0.2698763 0.96900004
-0.52927911 0.44069979 1.3160001
-0.35789162 0.26876226 0.96500003
-0.089305833 0.25773832 0.96900004
-0.34723717 0.25773832 0.96900004
-0.52930635 0.25773832 0.96900004
0.25927395 0.25733235 0.97900003
-0.52968132 0.43691042 1.317
-0.35937512 0.25470385 0.96900004
-0.53421092 0.43311477 1.3180001
-0.36847857 0.25470385 0.96900004
-0.51966602 0.25747237 0.96800005
-0.5596512 0.25470385 0.96900004
0.4057337 0.25800431 0.97000003
0.39965844 0.25800431 0.97000003
0.26847136 0.25426659 0.97900003
0.24701075 0.25733235 0.97900003
-0.52341241 0.43856913 1.322
-0.35439998 0.25244856 0.97200006
-0.53956366 0.43823743 1.3210001
-0.36923909 0.25218883 0.97100008
-0.54783726 0.43410063 1.3210001
-0.37797168 0.2519291 0.97000003
-0.55197412 0.43410063 1.3210001
-0.38100931 0.2519291 0.97000003
-0.42916831 0.25166938 0.96900004
-0.43827173 0.25166938 0.96900004
-0.44948009 0.25114995 0.96700007
-0.45809048 0.25089023 0.96600002
0.23160234 0.6438272 1.182
-0.46970415 0.2506305 0.96500003
0.22552708 0.64764005 1.189
-0.47926617 0.25089023 0.96600002
-0.48884696 0.25114995 0.96700007
-0.49844655 0.25140965 0.96800005
-0.50754064 0.25444099 0.96800005
-0.56875461 0.25166938 0.96900004
-0.57726175 0.25140965 0.96800005
-0.58877832 0.25114995 0.96700007
-0.59786302 0.25114995 0.96700007
-0.60934508 0.25089023 0.96600002
-0.61842036 0.25089023 0.96600002
-0.62814522 0.25114995 0.96700007
-0.63959599 0.25694036 0.96600002
0.38645217 0.25322771 0.97500002
0.37539059 0.2509442 0.97800004
0.36926526 0.2509442 0.97800004
0.35701457 0.2509442 0.97800004
0.34981287 0.25628096 0.97500002
0.3382923 0.2506876 0.97700006
-0.52165371 0.44271484 1.23
0.32911366 0.2506876 0.97700006
0.31960762 0.25043103 0.97600007
0.30738196 0.25043103 0.97600007
0.2985183 0.2506876 0.97700006
0.28963581 0.2509442 0.97800004
0.27766877 0.2512008 0.97900003
0.24751538 0.25171396 0.98100007
0.23805624 0.25145736 0.98000002
0.23781332 0.25426659 0.97900003
0.22861592 0.2512008 0.97900003
0.21897028 0.2506876 0.97700006
0.20936219 0.25017443 0.97500002
0.1967447 0.25880226 0.97300005
-0.3191815 0.25043103 0.97600007
-0.32529435 0.25043103 0.97600007
-0.33717415 0.25017443 0.97500002
-0.51927245 0.43856913 1.322
-0.3483122 0.25244856 0.97200006
0.37884021 0.24813497 0.97900003
0.36964282 0.24813497 0.97900003
0.35737962 0.24813497 0.97900003
0.3481822 0.24813497 0.97900003
0.33898479 0.24813497 0.97900003
-0.5246225 0.43361318 1.2370001
0.32978737 0.24813497 0.97900003
0.31752419 0.24813497 0.97900003
0.30832678 0.24813497 0.97900003
0.2991294 0.24813497 0.97900003
0.22248434 0.24813497 0.97900003
0.22603071 0.62747371 1.373
0.16100366 0.24788152 0.97800004
0.15197089 0.24813497 0.97900003
0.20527735 0.62975878 1.378
0.14890508 0.24813497 0.97900003
0.13970768 0.24813497 0.97900003
0.12744448 0.24813497 0.97900003
0.11824706 0.24813497 0.97900003
0.10904966 0.24813497 0.97900003
0.099852256 0.24813497 0.97900003
0.40130654 0.24381754 0.97400004
0.21941853 0.24813497 0.97900003
0.17956309 0.24506918 0.97900003
-0.71648598 0.24237691 1.006
-0.27724138 0.24506918 0.97900003
-0.72908741 0.24237691 1.006
-0.28950459 0.24506918 0.97900003
-0.52795136 0.42647171 1.3230001
-0.35695222 0.24506918 0.97900003
-0.53956366 0.42996383 1.3210001
-0.36921543 0.24506918 0.97900003
-0.54783726 0.42996383 1.3210001
-0.37841284 0.24506918 0.97900003
-0.39905655 0.24456853 0.97700006
-0.40823519 0.24456853 0.97700006
-0.41741377 0.24456853 0.97700006
-0.42965195 0.24456853 0.97700006
0.97195226 0.81132829 1.4810001
-0.43883055 0.24456853 0.97700006
0.39907417 0.2412618 0.97600007
0.38803762 0.24200337 0.97900003
0.27684692 0.24398093 0.98700005
0.26757434 0.24398093 0.98700005
0.25856346 0.24422811 0.98800004
0.24902922 0.24398093 0.98700005
0.37807745 0.24040194 0.98500007
0.36611038 0.240646 0.98600006
-0.50740844 0.64588523 1.179
0.35720912 0.24089007 0.98700005
-0.51848477 0.64588523 1.179
0.34828907 0.24113412 0.98800004
-0.52217692 0.64588523 1.179
0.33625311 0.24137819 0.98900002
0.32696179 0.24137819 0.98900002
0.3176704 0.24137819 0.98900002
0.30837905 0.24137819 0.98900002
0.29599059 0.24137819 0.98900002
0.28979635 0.24137819 0.98900002
0.25624523 0.24186632 0.99100006
0.24978615 0.24162225 0.99000007
0.23714536 0.24137819 0.98900002
0.22762361 0.24113412 0.98800004
0.21812068 0.24089007 0.98700005
0.15955593 0.24113412 0.98800004
0.20169123 0.62771291 1.383
0.14717999 0.24113412 0.98800004
0.1977884 0.62473416 1.386
0.13789803 0.24113412 0.98800004
0.12255201 0.24137819 0.98900002
0.1194549 0.24137819 0.98900002
-0.5476951 0.44293863 1.097
0.10706643 0.24137819 0.98900002
-0.52650982 0.63840199 1.299
-0.55456573 0.44293863 1.097
0.097775072 0.24137819 0.98900002
0.088483721 0.24137819 0.98900002
-0.33480272 0.240646 0.98600006
-0.34680152 0.24040194 0.98500007
-0.35950449 0.240646 0.98600006
-0.36914167 0.24089007 0.98700005
-0.37841421 0.24089007 0.98700005
-0.40849337 0.24040194 0.98500007
-0.41774711 0.24040194 0.98500007
-0.42700091 0.24040194 0.98500007
-0.43933928 0.24040194 0.98500007
-0.44550845 0.24040194 0.98500007
-0.45121905 0.24015787 0.98400003
0.3788451 0.23779923 0.98700005
0.36722431 0.23828107 0.98900002
-0.22954202 0.23114593 1.0120001
0.21236843 0.23828107 0.98900002
-0.23588032 0.23114593 1.0120001
0.20927131 0.23828107 0.98900002
-0.24831127 0.23091753 1.011
0.19997996 0.23828107 0.98900002
-0.41944352 0.23828107 0.98900002
-0.43802625 0.23828107 0.98900002
-0.44995928 0.23804015 0.98800004
-0.51750267 0.23779923 0.98700005
-0.52730894 0.23804015 0.98800004
-0.53713399 0.23828107 0.98900002
-0.55881381 0.23828107 0.98900002
0.33585089 0.23708636 0.99700004
0.32960656 0.23708636 0.99700004
0.31711787 0.23708636 0.99700004
0.30744272 0.23684856 0.99600005
0.29808557 0.23684856 0.99600005
0.28872845 0.23684856 0.99600005
0.27965185 0.23708636 0.99700004
0.26716316 0.23708636 0.99700004
0.25779667 0.23708636 0.99700004
0.24843015 0.23708636 0.99700004
0.23906364 0.23708636 0.99700004
0.16708598 0.23684856 0.99600005
0.15476504 0.23708636 0.99700004
0.14852069 0.23708636 0.99700004
0.1391542 0.23708636 0.99700004
-0.52937597 0.4373652 1.1090001
0.12978768 0.23708636 0.99700004
-0.53438735 0.43924806 1.105
0.117299 0.23708636 0.99700004
-0.51747352 0.62186885 1.307
0.10491544 0.23732415 0.99800003
0.067276731 0.23684856 0.99600005
0.057919614 0.23684856 0.99600005
0.048562501 0.23684856 0.99600005
-0.49996859 0.23518395 0.98900002
-0.50306571 0.23518395 0.98900002
-0.50783879 0.63904268 1.1800001
0.35806486 0.23419885 0.99800003
0.34903836 0.23443353 0.99900007
0.22702947 0.23443353 0.99900007
0.21742629 0.23419885 0.99800003
0.033066608 0.23443353 0.99900007
0.029938174 0.23443353 0.99900007
0.017406998 0.23419885 0.99800003
0.0080310944 0.23419885 0.99800003
-0.0044656331 0.23396419 0.99700004
-0.43888703 0.23419885 0.99800003
-0.44871211 0.23443353 0.99900007
-0.45763883 0.23419885 0.99800003
-0.4691979 0.23372953 0.99600005
0.22248216 0.62652546 1.2130001
-0.47807452 0.23349485 0.99500006
-0.53835666 0.23396419 0.99700004
-0.52596086 0.42298654 1.1960001
-0.55708975 0.23396419 0.99700004
0.38153192 0.23014739 0.99400002
0.37019476 0.23084201 0.99700004
-0.49717408 0.63958424 1.1810001
0.36780897 0.23130509 0.99900007
0.36504555 0.23153661 1
0.32943159 0.23292585 1.006
0.25986522 0.2326943 1.005
0.24727632 0.2326943 1.005
0.15631735 0.23315738 1.0070001
0.14685689 0.23315738 1.0070001
0.13725999 0.23292585 1.006
-0.52316886 0.43741348 1.118
0.12780893 0.23292585 1.006
0.11847552 0.23315738 1.0070001
-0.51691574 0.62615108 1.3160001
0.10901507 0.23315738 1.0070001
0.099554606 0.23315738 1.0070001
-0.38884914 0.23292585 1.006
-0.39790428 0.2326943 1.005
-0.40694064 0.23246278 1.0040001
0.21940471 0.62859148 1.217
-0.48938176 0.23130509 0.99900007
0.20814225 0.62910801 1.2180001
-0.49826774 0.23107354 0.99800003
-0.50815237 0.23130509 0.99900007
-0.52845967 0.23372953 0.99600005
0.35778478 0.2297755 1.006
0.35498697 0.23000391 1.0070001
0.34902623 0.2302323 1.008
0.33989322 0.23046072 1.0090001
0.33706719 0.23068911 1.01
0.32757857 0.23068911 1.01
0.3180899 0.23068911 1.01
0.31998053 0.23292585 1.006
0.30829576 0.23046072 1.0090001
0.2988165 0.23046072 1.0090001
0.28933725 0.23046072 1.0090001
0.27985802 0.23046072 1.0090001
0.26721901 0.23046072 1.0090001
-0.25755426 0.23068911 1.01
0.18759149 0.23828107 0.98900002
0.26432094 0.23068911 1.01
0.25799522 0.23068911 1.01
0.24850656 0.23068911 1.01
0.23901792 0.23068911 1.01
0.23246178 0.23046072 1.0090001
0.22930203 0.23046072 1.0090001
0.21960491 0.2302323 1.008
0.20992661 0.23000391 1.0070001
0.14758608 0.23114593 1.0120001
-0.51986015 0.43701732 1.126
0.13807864 0.23114593 1.0120001
-0.52152705 0.43897852 1.1220001
0.12540206 0.23114593 1.0120001
-0.50537467 0.6281746 1.3290001
0.11906378 0.23114593 1.0120001
-0.51591188 0.6299575 1.3240001
0.10014778 0.23137432 1.013
0.096975505 0.23137432 1.013
0.0017644345 0.23828107 0.98900002
0.087458678 0.23137432 1.013
-0.15934709 0.23046072 1.0090001
-0.35770082 0.23000391 1.0070001
0.96592665 0.80941391 1.4860001
-0.44358334 0.23771724 0.97400004
-0.36789051 0.23046072 1.0090001
-0.37939808 0.23292585 1.006
-0.45877644 0.23779923 0.98700005
-0.37811777 0.23091753 1.011
-0.46757478 0.23755829 0.98600006
-0.38761577 0.23091753 1.011
0.22516148 0.62720615 1.207
-0.47828877 0.23518395 0.98900002
-0.39711383 0.23091753 1.011
0.21796247 0.62824547 1.2090001
-0.48758015 0.23518395 0.98900002
-0.40937251 0.23068911 1.01
-0.41803175 0.2302323 1.008
-0.42750159 0.2302323 1.008
-0.43697146 0.2302323 1.008
-0.44688424 0.23046072 1.0090001
-0.45636347 0.23046072 1.0090001
-0.54952246 0.23828107 0.98900002
-0.022989238 0.23804015 0.98800004
-0.46316662 0.23228796 1.0170001
-0.46853763 0.2302323 1.008
0.22120757 0.62991416 1.2270001
-0.47437984 0.23000391 1.0070001
0.39517212 0.22459768 0.99700004
0.38892779 0.22459768 0.99700004
0.379942 0.22482295 0.99800003
0.3648093 0.22707568 1.008
0.54892945 0.80311096 1.4660001
0.25927243 0.22865261 1.0150001
0.53790683 0.80037183 1.4610001
-0.19681105 0.22125714 1.0400001
0.24973682 0.22865261 1.0150001
0.52984208 0.8020153 1.4640001
-0.20678015 0.22146986 1.041
0.23702265 0.22865261 1.0150001
-0.2589395 0.22146986 1.041
0.18915804 0.22842734 1.0140001
-0.26520443 0.22125714 1.0400001
0.17362277 0.22887787 1.016
0.16742407 0.22910316 1.0170001
0.15483695 0.22932841 1.018
0.14846107 0.22932841 1.018
-0.51986015 0.42996508 1.126
0.13876085 0.22910316 1.0170001
-0.5210622 0.42805582 1.1210001
0.12920645 0.22910316 1.0170001
-0.50915307 0.61938447 1.3280001
0.11965204 0.22910316 1.0170001
-0.17936587 0.22865261 1.0150001
-0.54772323 0.23396419 0.99700004
-0.023245191 0.23130509 0.99900007
-0.46498829 0.23000424 1.021
-0.46815115 0.22842734 1.0140001
0.39322963 0.22214192 1
0.3869665 0.22214192 1
0.64859867 0.80146748 1.4630001
0.35815963 0.22569621 1.016
0.63943565 0.80146748 1.4630001
0.34326184 0.22636263 1.0190001
0.62984192 0.80091959 1.462
0.33687973 0.22636263 1.0190001
0.32730654 0.22636263 1.0190001
0.31773332 0.22636263 1.0190001
0.30816016 0.22636263 1.0190001
0.29829392 0.22614048 1.018
0.28873014 0.22614048 1.018
0.56613201 0.80146748 1.4630001
0.27916634 0.22614048 1.018
0.5577305 0.80256307 1.465
0.26986736 0.22636263 1.0190001
0.5199616 0.80091959 1.462
-0.21656004 0.22146986 1.041
0.22838354 0.22636263 1.0190001
-0.22982045 0.22168262 1.0420001
0.21881035 0.22636263 1.0190001
-0.2396097 0.22168262 1.0420001
0.20903181 0.22614048 1.018
-0.24915962 0.22146986 1.041
0.19966395 0.22636263 1.0190001
0.098028548 0.22747333 1.024
-0.15773527 0.22636263 1.0190001
-0.43854895 0.22636263 1.0190001
-0.44812214 0.22636263 1.0190001
-0.45450428 0.22636263 1.0190001
-0.47956169 0.22614048 1.018
-0.48864502 0.22591835 1.0170001
-0.49721971 0.22547407 1.0150001
-0.069469266 0.22898972 0.98900002
-0.50943142 0.22525193 1.0140001
-0.49930334 0.2102944 1.067
0.3885144 0.21988641 1.0040001
-0.50932747 0.2102944 1.067
0.37908214 0.21988641 1.0040001
0.37149075 0.22414121 1.0090001
0.66646868 0.80091959 1.462
0.3701562 0.22207651 1.0140001
0.65731198 0.80091959 1.462
0.3655993 0.22317156 1.0190001
0.32891256 0.22426662 1.024
0.2650367 0.22448564 1.0250001
0.25861698 0.22448564 1.0250001
0.24923031 0.22470462 1.026
0.23959136 0.22470462 1.026
0.2297283 0.22448564 1.0250001
0.21988399 0.22426662 1.024
0.2070571 0.22426662 1.024
0.19762976 0.22448564 1.0250001
0.16617718 0.22536166 1.029
0.15973243 0.22536166 1.029
0.14684291 0.22536166 1.029
-0.51872838 0.42422858 1.1390001
0.13704243 0.22514264 1.028
0.12738469 0.22514264 1.028
0.1146191 0.22536166 1.029
0.10817434 0.22536166 1.029
0.069438234 0.22514264 1.028
0.059664179 0.22470462 1.026
-0.47918147 0.22426662 1.024
-0.038887359 0.22817667 0.99900007
0.049976468 0.22448564 1.0250001
-0.48796597 0.2221393 1.029
-0.045099031 0.22794825 0.99800003
0.037137054 0.22448564 1.0250001
-0.40983075 0.22492364 1.0270001
-0.43749407 0.22426662 1.024
-0.44711426 0.22426662 1.024
-0.45718047 0.22448564 1.0250001
-0.46863168 0.22536166 1.029
-0.50559318 0.41657028 1.21
-0.097343326 0.22898972 0.98900002
-0.53747195 0.22317156 1.0190001
-0.54704511 0.22317156 1.0190001
-0.55980939 0.22317156 1.0190001
0.36454219 0.22127579 1.0250001
0.3556051 0.22170754 1.0270001
0.34663045 0.2221393 1.029
0.33696333 0.2221393 1.029
0.31118429 0.2221393 1.029
0.30796191 0.2221393 1.029
0.29829475 0.2221393 1.029
0.28862762 0.2221393 1.029
0.2789605 0.2221393 1.029
0.15742265 0.22343458 1.0350001
0.14769915 0.22343458 1.0350001
-0.51968443 0.42075679 1.149
0.13797562 0.22343458 1.0350001
0.1281282 0.22321869 1.034
0.11204627 0.22343458 1.0350001
0.10242161 0.22365044 1.036
0.099177316 0.22365044 1.036
-0.49988204 0.22170754 1.0270001
-0.057657957 0.22191979 0.99900007
0.021170078 0.2221393 1.029
-0.50903422 0.22149165 1.026
-0.06072554 0.22169764 0.99800003
0.017947698 0.2221393 1.029
-0.51816767 0.22127579 1.0250001
-0.072933249 0.22080907 0.99400002
0.0050483462 0.22170754 1.0270001
-0.52779728 0.22127579 1.0250001
-0.088408098 0.22058694 0.99300003
-0.0013825407 0.22149165 1.026
-0.097835451 0.22080907 0.99400002
-0.53690249 0.2210599 1.024
-0.10760506 0.22169764 0.99800003
-0.54972935 0.2210599 1.024
-0.11686375 0.22771986 0.99700004
-0.55989575 0.22127579 1.0250001
-0.12022662 0.22817667 0.99900007
-0.56952536 0.22127579 1.0250001
0.67562538 0.79634124 1.462
0.38474572 0.21678944 1.0190001
0.66692454 0.79688597 1.4630001
0.37836358 0.21678944 1.0190001
0.36918712 0.21891691 1.029
0.34216931 0.2201934 1.0350001
0.33892816 0.2201934 1.0350001
0.32920462 0.2201934 1.0350001
0.31948113 0.2201934 1.0350001
0.30975762 0.2201934 1.0350001
0.29679292 0.2201934 1.0350001
0.29326814 0.21998064 1.034
0.28679207 0.21998064 1.034
0.27734593 0.2201934 1.0350001
0.26788098 0.22040613 1.036
0.25839725 0.22061889 1.0370001
0.24865496 0.22061889 1.0370001
0.23891264 0.22061889 1.0370001
0.22917035 0.22061889 1.0370001
0.21942806 0.22061889 1.0370001
0.20968576 0.22061889 1.0370001
0.19994347 0.22061889 1.0370001
0.078249626 0.22910316 1.0170001
0.15848733 0.22168262 1.0420001
0.06862767 0.22887787 1.016
0.14855535 0.22146986 1.041
0.059024509 0.22865261 1.0150001
-0.51967955 0.42006314 1.1570001
0.13877547 0.22146986 1.041
0.043301795 0.22636263 1.0190001
0.12887169 0.22125714 1.0400001
0.036919665 0.22636263 1.0190001
0.11921572 0.22146986 1.041
0.027346473 0.22636263 1.0190001
0.83526945 0.80475444 1.4690001
0.10301479 0.22168262 1.0420001
0.017755836 0.22614048 1.018
0.82550651 0.80420655 1.4680001
0.099751703 0.22168262 1.0420001
-0.37737036 0.2201934 1.0350001
-0.3882159 0.22083165 1.0380001
-0.47705907 0.2297755 1.006
-0.39835092 0.22104438 1.039
-0.48868701 0.22931869 1.0040001
-0.40811202 0.22104438 1.039
-0.49744022 0.22730097 1.0090001
-0.41747093 0.22083165 1.0380001
-0.50691944 0.22730097 1.0090001
-0.42964375 0.22040613 1.036
