# .PCD v0.7 - Point Cloud Data file format
VERSION 0.7
FIELDS x y z
SIZE 4 4 4
TYPE F F F
COUNT 1 1 1
WIDTH 1551
HEIGHT 1
VIEWPOINT 0 0 0 1 0 0 0
POINTS 1551
DATA ascii
-0.13830462 0.21343558 1.0660001
0.81643575 0.79982394 1.46
-0.74998844 0.77930707 1.439
-0.13408008 0.21535034 1.059
0.80673867 0.79927617 1.4590001
-0.14923905 0.21003181 1.049
0.13803761 0.23828107 0.98900002
-0.76828271 0.77964664 1.4480001
-0.15803704 0.21303512 1.064
-0.164701 0.21303512 1.064
-0.17786163 0.21283491 1.0630001
-0.18784818 0.21283491 1.0630001
-0.19783475 0.21283491 1.0630001
-0.23800465 0.21303512 1.064
-0.24846682 0.21343558 1.0660001
-0.258724 0.21363579 1.067
-0.26540676 0.21363579 1.067
-0.2751728 0.21343558 1.0660001
-0.40933523 0.21203402 1.059
-0.41928422 0.21203402 1.059
0.52705139 0.79555398 1.4690001
-0.42882788 0.2118338 1.0580001
0.51714587 0.79906476 1.4670001
-0.43876749 0.2118338 1.0580001
0.50726527 0.79797536 1.465
-0.44870704 0.2118338 1.0580001
0.49740982 0.79688597 1.4630001
-0.45864666 0.2118338 1.0580001
0.48724565 0.79982394 1.46
-0.46902913 0.21203402 1.059
-0.47897807 0.21203402 1.059
-0.48229441 0.21203402 1.059
-0.54736435 0.21283491 1.0630001
-0.52899253 0.60632569 1.266
-0.55735093 0.21283491 1.0630001
-0.53960449 0.60884404 1.263
-0.56733745 0.21283491 1.0630001
-0.57732403 0.21283491 1.0630001
-0.59836584 0.21203402 1.059
-0.60774046 0.2118338 1.0580001
-0.61981928 0.21143335 1.056
-0.62974006 0.21143335 1.056
-0.63966089 0.21143335 1.056
0.047943931 0.15995575 1.2180001
-0.64958167 0.21143335 1.056
0.036471229 0.15982442 1.217
-0.65681696 0.21163358 1.057
0.028848998 0.15982442 1.217
-0.66800874 0.21203402 1.059
0.013716332 0.15729527 1.2270001
-0.67923814 0.21243447 1.0610001
0.0021908246 0.15742345 1.228
-0.6865297 0.21263468 1.062
-0.3515999 0.06871146 1.4690001
-0.42830139 0.23804015 0.98800004
-0.028596936 0.15755165 1.2290001
-0.71315163 0.21363579 1.067
-0.21112005 0.77270627 1.452
-0.22953604 0.10479183 1.3980001
0.39989945 0.2190107 1.077
-0.22899233 0.77164197 1.45
-0.23391399 0.10479183 1.3980001
0.38978136 0.2190107 1.077
-0.23807386 0.77164197 1.45
-0.24998692 0.10854504 1.3900001
0.37895826 0.218604 1.075
0.35307908 0.21049149 1.0680001
0.34973454 0.21049149 1.0680001
0.31993321 0.21068858 1.069
0.30960041 0.21049149 1.0680001
0.29928637 0.2102944 1.067
0.28926224 0.2102944 1.067
0.27923808 0.2102944 1.067
-0.35855064 0.10846695 1.3890001
0.26921394 0.2102944 1.067
-0.36672133 0.10831077 1.3870001
0.25894693 0.21009733 1.0660001
-0.37893042 0.1080765 1.3840001
0.24582429 0.2102944 1.067
-0.38675839 0.10784223 1.381
0.23914154 0.2102944 1.067
-0.39769834 0.1041172 1.3890001
0.22911741 0.2102944 1.067
-0.40581268 0.10396729 1.3870001
0.21909326 0.2102944 1.067
-0.4055222 0.77964664 1.4480001
-0.41914505 0.10404224 1.388
0.2088732 0.21009733 1.0660001
-0.41033989 0.77564746 1.4490001
-0.42379677 0.1041172 1.3890001
0.19885845 0.21009733 1.0660001
-0.50895298 0.1080765 1.3840001
0.11540224 0.21009733 1.0660001
0.39698762 0.23447056 0.98600006
-0.51762116 0.1080765 1.3840001
0.10224071 0.21049149 1.0680001
0.3854169 0.23804015 0.98800004
-0.52666956 0.10815459 1.3850001
0.095641151 0.21068858 1.069
-0.535344 0.10815459 1.3850001
0.088945866 0.21068858 1.069
-0.54954344 0.10838886 1.388
0.078902945 0.21068858 1.069
-0.5542891 0.10846695 1.3890001
0.068795599 0.21049149 1.0680001
0.058707044 0.2102944 1.067
0.048637282 0.21009733 1.0660001
0.038622536 0.21009733 1.0660001
0.021951867 0.2102944 1.067
0.011938909 0.21049149 1.0680001
-0.61864322 0.10831077 1.3870001
0.0019071592 0.21068858 1.069
-0.62642556 0.10815459 1.3850001
-0.0081357686 0.21068858 1.069
-0.63897556 0.1080765 1.3840001
-0.018178696 0.21068858 1.069
-0.6481117 0.10815459 1.3850001
-0.028221624 0.21068858 1.069
-0.65631187 0.1080765 1.3840001
-0.038228761 0.21049149 1.0680001
0.90488899 0.7914921 1.47
-0.66738242 0.1041172 1.3890001
-0.041573271 0.21049149 1.0680001
0.89629149 0.79663706 1.4710001
-0.67945194 0.10396729 1.3870001
-0.058241241 0.2102944 1.067
0.8882845 0.79772019 1.473
-0.68665051 0.10374241 1.3840001
-0.068265378 0.2102944 1.067
0.87726855 0.79609549 1.47
0.1972176 0.71814328 1.3820001
-0.69048524 0.10366745 1.383
-0.078289516 0.2102944 1.067
-0.08839643 0.21049149 1.0680001
-0.098522119 0.21068858 1.069
0.16725372 0.23396419 0.99700004
-0.12925264 0.21167402 1.074
0.15492028 0.23419885 0.99800003
-0.13597924 0.21167402 1.074
0.098467112 0.23684856 0.99600005
-0.80900377 0.77939451 1.4560001
-0.19913751 0.21088567 1.0700001
-0.20899433 0.21068858 1.069
-0.21903725 0.21068858 1.069
-0.22573254 0.21068858 1.069
0.064286523 0.23732415 0.99800003
-0.83750999 0.77133346 1.4580001
-0.22929448 0.21088567 1.0700001
-0.28933775 0.21068858 1.069
-0.29241163 0.21049149 1.0680001
-0.51248813 0.49631831 1.149
-0.30187878 0.21009733 1.0660001
0.61947817 0.79609549 1.47
0.35511279 0.15703887 1.225
-0.3385995 0.21009733 1.0660001
0.60608 0.79663706 1.4710001
0.34087762 0.15755165 1.2290001
-0.34894124 0.2102944 1.067
0.59686697 0.79663706 1.4710001
0.33702892 0.15755165 1.2290001
-0.35930184 0.21049149 1.0680001
0.58765388 0.79663706 1.4710001
-0.36933538 0.21049149 1.0680001
0.57844085 0.79663706 1.4710001
-0.37901366 0.2102944 1.067
0.56961471 0.79717869 1.4720001
-0.38867325 0.21009733 1.0660001
0.55578578 0.79717869 1.4720001
-0.39868799 0.21009733 1.0660001
0.5469377 0.78849459 1.473
-0.40831929 0.20990023 1.0650001
0.53734708 0.78795934 1.4720001
-0.41832465 0.20990023 1.0650001
0.52776897 0.78742397 1.4710001
-0.42833 0.20990023 1.0650001
0.51855594 0.78281748 1.4710001
-0.43833536 0.20990023 1.0650001
-0.44834071 0.20990023 1.0650001
-0.45834604 0.20990023 1.0650001
-0.46835139 0.20990023 1.0650001
-0.47168654 0.20990023 1.0650001
-0.47880593 0.21009733 1.0660001
-0.48882067 0.21009733 1.0660001
0.21080334 0.68440855 1.358
-0.49930334 0.2102944 1.067
-0.50980484 0.21049149 1.0680001
-0.51697743 0.21068858 1.069
-0.52702039 0.21068858 1.069
-0.53036803 0.21068858 1.069
-0.58727795 0.21068858 1.069
-0.5995447 0.2102944 1.067
-0.60565937 0.21009733 1.0660001
-0.60842633 0.20990023 1.0650001
-0.61727029 0.20950605 1.0630001
-0.3377991 0.06871146 1.4690001
-0.40705508 0.23828107 0.98900002
-0.009353471 0.15755165 1.2290001
-0.69978613 0.2102944 1.067
-0.34699965 0.06871146 1.4690001
-0.41901943 0.23804015 0.98800004
-0.017050857 0.15755165 1.2290001
-0.70981026 0.21363579 1.067
-0.7690227 0.76676762 1.4580001
-0.15688604 0.20928051 1.079
-0.77411914 0.76729357 1.4590001
-0.16686812 0.20908657 1.0780001
-0.17683141 0.2088926 1.077
-0.18694949 0.2088926 1.077
-0.37813684 0.20831071 1.074
0.21204519 0.67988503 1.3660001
-0.49921569 0.20831071 1.074
-0.50977981 0.20850468 1.075
-0.51651269 0.20850468 1.075
-0.52710187 0.20869865 1.0760001
-0.53721052 0.20869865 1.0760001
-0.5478279 0.2088926 1.077
-0.52077496 0.59466511 1.2750001
-0.55794597 0.2088926 1.077
-0.56859154 0.20908657 1.0780001
-0.57871896 0.20908657 1.0780001
-0.58830023 0.2088926 1.077
-0.59730703 0.20850468 1.075
-0.60906827 0.2079228 1.072
-0.6268627 0.20714699 1.0680001
-0.63964128 0.20695302 1.067
-0.64905661 0.20675907 1.0660001
-0.65907133 0.20675907 1.0660001
-0.6690861 0.20675907 1.0660001
-0.67973781 0.20695302 1.067
0.18766566 0.2297755 1.006
-0.1066938 0.20685571 1.0840001
0.17821459 0.2297755 1.006
-0.52182871 0.62710267 1.3180001
-0.11709329 0.20723736 1.0860001
0.16876353 0.2297755 1.006
-0.12753035 0.20761901 1.0880001
-0.13775177 0.20761901 1.0880001
-0.14115892 0.20761901 1.0880001
-0.14709066 0.21124469 1.107
-0.15749058 0.21124469 1.107
-0.7676028 0.76075387 1.4640001
-0.15790385 0.20723736 1.0860001
-0.77836376 0.76231277 1.4670001
-0.16795169 0.20704652 1.085
-0.78808856 0.7628324 1.4680001
-0.17798075 0.20685571 1.0840001
-0.79782593 0.76335204 1.4690001
-0.18816459 0.20685571 1.0840001
-0.80886424 0.76992309 1.4640001
-0.19834845 0.20685571 1.0840001
-0.81567138 0.7628324 1.4680001
-0.2085323 0.20685571 1.0840001
-0.82951468 0.7678194 1.46
-0.21851437 0.20666488 1.0830001
-0.83980769 0.76429284 1.462
-0.22868882 0.20666488 1.0830001
-0.84954512 0.76481569 1.4630001
-0.23908386 0.20685571 1.0840001
-0.38665518 0.20590156 1.079
-0.39980018 0.20571074 1.0780001
-0.40954736 0.20551991 1.077
-0.41966546 0.20551991 1.077
-0.42978352 0.20551991 1.077
-0.43990162 0.20551991 1.077
-0.44706175 0.20571074 1.0780001
-0.45718923 0.20571074 1.0780001
-0.46775019 0.20590156 1.079
-0.47788706 0.20590156 1.079
-0.48464498 0.20590156 1.079
-0.51801789 0.59669489 1.2880001
-0.54748839 0.20666488 1.0830001
-0.52043003 0.59886271 1.284
-0.55817777 0.20685571 1.0840001
-0.56888592 0.20704652 1.085
-0.57907915 0.20704652 1.085
-0.58872932 0.20685571 1.0840001
-0.59836066 0.20666488 1.0830001
-0.61922896 0.20571074 1.0780001
-0.6276049 0.20513827 1.075
-0.63987797 0.20475662 1.0730001
-0.68770719 0.20399329 1.069
-0.69775015 0.20399329 1.069
-0.70378649 0.20714699 1.0680001
0.39122903 0.202898 1.0810001
0.38784382 0.202898 1.0810001
0.35222808 0.20383647 1.0860001
0.34606245 0.20421186 1.0880001
-0.27686015 0.76023418 1.4630001
-0.51833671 0.65904319 1.3410001
0.33955997 0.20439956 1.0890001
-0.30935282 0.76127344 1.465
0.30830026 0.20402415 1.087
-0.31852832 0.76127344 1.465
0.29781401 0.20383647 1.0860001
-0.3279275 0.76179314 1.4660001
0.28761134 0.20383647 1.0860001
-0.33251837 0.76179314 1.4660001
0.27740872 0.20383647 1.0860001
0.22929958 0.45787823 1.1340001
-0.0082879821 0.20439956 1.0890001
0.2158535 0.45949331 1.138
-0.018518804 0.20439956 1.0890001
-0.64610535 0.096791618 1.409
-0.028749626 0.20439956 1.0890001
-0.65934247 0.096791618 1.409
-0.03898045 0.20439956 1.0890001
-0.6672188 0.096654229 1.4070001
-0.049211271 0.20439956 1.0890001
-0.67651153 0.092313685 1.4080001
-0.059442095 0.20439956 1.0890001
0.20974639 0.70519847 1.4080001
-0.68728989 0.091985866 1.4030001
-0.06967292 0.20439956 1.0890001
-0.69020444 0.091789179 1.4000001
-0.079903737 0.20439956 1.0890001
-0.086724289 0.20439956 1.0890001
-0.096955113 0.20439956 1.0890001
0.1612128 0.22614048 1.018
-0.12835085 0.20552571 1.095
0.15802489 0.22614048 1.018
-0.13876466 0.20571342 1.0960001
0.14846107 0.22614048 1.018
-0.14219686 0.20571342 1.0960001
0.13876085 0.22591835 1.0170001
-0.15892164 0.20515034 1.0930001
-0.95423508 0.76795232 1.4690001
-0.34771156 0.2034611 1.0840001
-0.35822555 0.20364878 1.085
-0.36875838 0.20383647 1.0860001
-0.37896103 0.20383647 1.0860001
-0.38880527 0.20364878 1.085
-0.39863083 0.2034611 1.0840001
-0.40843749 0.20327339 1.0830001
-0.44955006 0.2034611 1.0840001
-0.45676026 0.20364878 1.085
-0.46695349 0.20364878 1.085
-0.47758651 0.20383647 1.0860001
-0.48778912 0.20383647 1.0860001
-0.49845031 0.20402415 1.087
0.20868006 0.67857486 1.3720001
-0.5091303 0.20421186 1.0880001
-0.51982909 0.20439956 1.0890001
-0.52664965 0.20439956 1.0890001
-0.53005993 0.20439956 1.0890001
0.78926677 0.75875175 1.4690001
-0.60849625 0.20439956 1.0890001
0.77900422 0.75771874 1.4670001
-0.61759073 0.20402415 1.087
0.7692914 0.75720221 1.4660001
-0.62888402 0.20327339 1.0830001
-0.64961135 0.20233491 1.0780001
-0.65851486 0.20195954 1.0760001
-0.66800213 0.20177183 1.075
-0.67683989 0.20139644 1.0730001
-0.68899387 0.20102106 1.0710001
-0.69905561 0.20102106 1.0710001
0.19620265 0.73823678 1.4380001
0.36309814 0.20080471 1.0880001
0.19223268 0.73577452 1.442
-0.25964615 0.097478569 1.419
0.36035222 0.20117383 1.09
0.1838365 0.73832577 1.447
-0.26853353 0.097478569 1.419
0.35139683 0.20191211 1.0940001
0.34485987 0.20209666 1.095
-0.51640236 0.65889257 1.358
0.33831045 0.20228122 1.0960001
0.32771456 0.20209666 1.095
-0.30852675 0.097478569 1.419
0.31742737 0.20209666 1.095
-0.3174141 0.097478569 1.419
0.30685973 0.20191211 1.0940001
0.29973361 0.20172752 1.0930001
0.28946519 0.20172752 1.0930001
0.27894136 0.20154296 1.092
0.26868233 0.20154296 1.092
-0.36629471 0.097478569 1.419
0.25842333 0.20154296 1.092
-0.37882319 0.097272478 1.416
0.2483916 0.20172752 1.0930001
-0.38298684 0.097203791 1.4150001
0.23834106 0.20191211 1.0940001
-0.39929554 0.096860312 1.4100001
0.22484267 0.20209666 1.095
-0.40628791 0.093034886 1.419
0.21798453 0.20209666 1.095
-0.41843617 0.092772633 1.4150001
0.20750768 0.20191211 1.0940001
-0.4279024 0.092903756 1.4170001
0.1970496 0.20172752 1.0930001
-0.43295005 0.093034886 1.419
0.18678118 0.20172752 1.0930001
-0.44818375 0.096929006 1.411
0.17977096 0.20154296 1.092
-0.45734495 0.096997701 1.4120001
0.16935673 0.20135841 1.0910001
-0.46651864 0.097066402 1.4130001
0.15910712 0.20135841 1.0910001
-0.47604129 0.097203791 1.4150001
0.14872105 0.20117383 1.09
-0.51354283 0.51544791 1.202
-0.4852463 0.097272478 1.416
0.13177483 0.20135841 1.0910001
-0.49960542 0.093034886 1.419
0.12163659 0.20154296 1.092
-0.50404912 0.093034886 1.419
0.11147959 0.20172752 1.0930001
0.39516935 0.22185749 1.013
-0.51628637 0.097272478 1.416
0.10472972 0.20191211 1.0940001
0.38882479 0.22185749 1.013
-0.52921528 0.097203791 1.4150001
0.091109194 0.20209666 1.095
0.37443617 0.22273354 1.0170001
-0.53769732 0.097135089 1.414
0.087680131 0.20209666 1.095
0.34645292 0.2295537 1.0190001
-0.56546265 0.09734118 1.4170001
0.056714781 0.20172752 1.0930001
0.33687973 0.2295537 1.0190001
-0.57959187 0.097478569 1.419
0.049823552 0.20154296 1.092
0.32730654 0.2295537 1.0190001
0.036177978 0.20172752 1.0930001
0.3174215 0.22932841 1.018
0.025933284 0.20191211 1.0940001
0.30785772 0.22932841 1.018
-0.60625398 0.097478569 1.419
0.015669798 0.20209666 1.095
0.29539588 0.2295537 1.0190001
-0.61871183 0.09734118 1.4170001
0.001955329 0.20228122 1.0960001
0.28901377 0.2295537 1.0190001
-0.62270945 0.097272478 1.416
-0.0083412565 0.20228122 1.0960001
0.27944058 0.2295537 1.0190001
0.21284941 0.45713153 1.141
-0.63421571 0.096997701 1.4120001
-0.018637842 0.20228122 1.0960001
0.26986736 0.2295537 1.0190001
0.20337012 0.45993599 1.148
-0.64931524 0.09283819 1.416
-0.028934427 0.20228122 1.0960001
0.25685081 0.22932841 1.018
-0.65771902 0.092772633 1.4150001
-0.039231014 0.20228122 1.0960001
0.24704409 0.22910316 1.0170001
0.22344919 0.70670098 1.411
-0.66705239 0.09283819 1.416
-0.049527597 0.20228122 1.0960001
0.2374897 0.22910316 1.0170001
0.2191858 0.70720184 1.4120001
-0.67006409 0.092641503 1.4130001
-0.059824184 0.20228122 1.0960001
0.22771116 0.22887787 1.016
0.20621215 0.70820355 1.414
-0.066688575 0.20228122 1.0960001
0.24127603 0.61841798 1.212
0.21816616 0.22887787 1.016
0.19777481 0.70083129 1.4170001
-0.076985158 0.20228122 1.0960001
0.23748057 0.61841798 1.212
0.20604609 0.22636263 1.0190001
-0.087281741 0.20228122 1.0960001
0.199468 0.22614048 1.018
-0.097578332 0.20228122 1.0960001
0.18971768 0.22591835 1.0170001
-0.51786023 0.62401277 1.3290001
-0.10807176 0.20265034 1.098
0.17998612 0.22569621 1.016
-0.5200581 0.62581128 1.3240001
-0.11505337 0.20283492 1.0990001
0.13704243 0.22192341 1.028
-0.15777513 0.20815346 1.1090001
0.12295762 0.22614048 1.018
-0.16667722 0.20283492 1.0990001
0.11350521 0.22636263 1.0190001
-0.17684092 0.20265034 1.098
0.10712308 0.22636263 1.0190001
-0.79999834 0.76081777 1.473
-0.1871563 0.20265034 1.098
0.09716697 0.22865261 1.0150001
-0.80922395 0.76081777 1.473
-0.19747168 0.20265034 1.098
0.08771769 0.22887787 1.016
-0.81383675 0.76081777 1.473
-0.20778704 0.20265034 1.098
0.078172676 0.22887787 1.016
-0.21810241 0.20265034 1.098
0.06862767 0.22887787 1.016
-0.22820976 0.20246577 1.097
0.059082657 0.22887787 1.016
-0.23873317 0.20265034 1.098
0.049537648 0.22887787 1.016
-0.24927537 0.20283492 1.0990001
0.039992638 0.22887787 1.016
-0.25271696 0.20283492 1.0990001
0.027265962 0.22887787 1.016
-0.26992491 0.20283492 1.0990001
0.017720953 0.22887787 1.016
-0.27999467 0.20265034 1.098
0.0018126041 0.22887787 1.016
-0.89964384 0.76387167 1.47
-0.28317496 0.20246577 1.097
-0.0077324053 0.22887787 1.016
-0.90946895 0.7643913 1.4710001
-0.29294589 0.20209666 1.095
-0.017277414 0.22887787 1.016
-0.91930658 0.764911 1.4720001
-0.30895847 0.20135841 1.0910001
-0.93915391 0.7669068 1.4670001
-0.4907293 0.73067212 1.432
0.36598146 0.14447024 1.2490001
-0.32885373 0.20098929 1.0890001
-0.94898832 0.76742953 1.4680001
0.35033616 0.14838158 1.2490001
-0.33908457 0.20098929 1.0890001
-0.10965367 0.22910316 1.0170001
0.99775416 0.75877184 1.478
0.29770747 0.14945076 1.258
-0.39778847 0.20135841 1.0910001
-0.11920807 0.22910316 1.0170001
0.98849726 0.75877184 1.478
0.28959808 0.14933197 1.2570001
-0.40766406 0.20117383 1.09
-0.12876247 0.22910316 1.0170001
0.97990292 0.75928527 1.4790001
0.27778894 0.14933197 1.2570001
-0.41107744 0.20117383 1.09
-0.41752088 0.20098929 1.0890001
-0.42775172 0.20098929 1.0890001
-0.43798253 0.20098929 1.0890001
-0.15408921 0.22887787 1.016
0.94285029 0.75928527 1.4790001
0.22256321 0.42340916 1.118
0.24274719 0.14956957 1.2590001
-0.44862491 0.20117383 1.09
-0.16665171 0.22865261 1.0150001
0.93821871 0.75928527 1.4790001
0.21925806 0.42378789 1.1190001
0.23880453 0.14956957 1.2590001
-0.45928612 0.20135841 1.0910001
-0.17688166 0.22636263 1.0190001
0.9289555 0.75928527 1.4790001
0.20706648 0.4203794 1.11
-0.46996605 0.20154296 1.092
-0.18945979 0.22614048 1.018
0.91969234 0.75928527 1.4790001
-0.47680542 0.20154296 1.092
-0.1990236 0.22614048 1.018
-0.48751047 0.20172752 1.0930001
-0.2087923 0.22636263 1.0190001
-0.4982343 0.20191211 1.0940001
-0.21750833 0.22865261 1.0150001
0.20676702 0.67344838 1.388
-0.50897688 0.20209666 1.095
-0.22726761 0.22887787 1.016
-0.51926404 0.20209666 1.095
-0.23704572 0.22910316 1.0170001
-0.52660269 0.20228122 1.0960001
-0.24978493 0.22910316 1.0170001
0.15206645 0.14956957 1.2590001
-0.53689933 0.20228122 1.0960001
-0.25959429 0.22932841 1.018
-0.51351428 0.59274101 1.2970001
0.14812382 0.14956957 1.2590001
-0.5476951 0.20246577 1.097
0.21480691 0.44456026 1.2570001
-0.26597017 0.22932841 1.018
0.1362959 0.14956957 1.2590001
-0.5580011 0.20246577 1.097
0.20726341 0.44132495 1.2590001
-0.27844816 0.22910316 1.0170001
0.82944286 0.75723171 1.475
0.12841061 0.14956957 1.2590001
-0.56882519 0.20265034 1.098
0.75855416 0.75565267 1.4630001
-0.63801473 0.20062014 1.087
0.7493912 0.75565267 1.4630001
-0.64983243 0.20006648 1.0840001
0.29829475 0.22536166 1.029
-0.61817592 0.093493834 1.4260001
0.0019678173 0.20011905 1.103
0.28862762 0.22536166 1.029
-0.62622756 0.093362704 1.424
-0.008394531 0.20011905 1.103
0.2789605 0.22536166 1.029
-0.63780898 0.093100451 1.4200001
-0.018756878 0.20011905 1.103
0.26929334 0.22536166 1.029
0.20029715 0.45753351 1.151
-0.029119225 0.20011905 1.103
0.2593739 0.22514264 1.028
0.19409485 0.45991856 1.1570001
-0.039481573 0.20011905 1.103
0.24971613 0.22514264 1.028
0.1868484 0.45629534 1.1570001
-0.049843922 0.20011905 1.103
0.23982489 0.22492364 1.0270001
-0.056752153 0.20011905 1.103
-0.39891902 0.11801679 1.3490001
0.22696042 0.22492364 1.0270001
-0.067175351 0.2003005 1.1040001
0.21710047 0.22470462 1.026
0.19833311 0.70725965 1.4210001
-0.077476852 0.20011905 1.103
0.23542042 0.61918658 1.2210001
0.20484574 0.2221393 1.029
-0.087839194 0.20011905 1.103
0.22758658 0.61867946 1.22
0.19820817 0.22192341 1.028
-0.098201543 0.20011905 1.103
0.21647935 0.61969364 1.222
0.18836701 0.22170754 1.0270001
-0.5171771 0.62823856 1.3380001
-0.10866232 0.2003005 1.1040001
0.17245418 0.22192341 1.028
-0.11935752 0.20084476 1.107
0.16295479 0.2221393 1.029
-0.12987466 0.20102622 1.108
0.15973243 0.2221393 1.029
-0.13693769 0.20120765 1.1090001
0.14684291 0.2221393 1.029
-0.14735642 0.20815346 1.1090001
-0.14841941 0.2026591 1.1170001
-0.15541531 0.2026591 1.1170001
0.12106386 0.2221393 1.029
-0.16773885 0.20066336 1.1060001
0.11784148 0.2221393 1.029
-0.17796831 0.20048191 1.105
0.10143299 0.22470462 1.026
-0.18834946 0.20048191 1.105
0.09188351 0.22492364 1.0270001
-0.19873059 0.20048191 1.105
0.088667393 0.22492364 1.0270001
-0.20930098 0.20066336 1.1060001
0.07901904 0.22492364 1.0270001
-0.21949287 0.20048191 1.105
0.069370687 0.22492364 1.0270001
-0.22966599 0.2003005 1.1040001
0.059722334 0.22492364 1.0270001
-0.23679475 0.20048191 1.105
0.04681224 0.22470462 1.026
-0.2473996 0.20066336 1.1060001
0.037173282 0.22470462 1.026
-0.25779015 0.20066336 1.1060001
0.027534328 0.22470462 1.026
-0.26818067 0.20066336 1.1060001
0.017895371 0.22470462 1.026
-0.27831933 0.20048191 1.105
0.0018322289 0.22492364 1.0270001
-0.28817791 0.20011905 1.103
-0.38693896 0.19939333 1.0990001
-0.39997607 0.19903046 1.097
-0.40990809 0.19884904 1.0960001
-0.41982123 0.1986676 1.095
-0.42667937 0.1986676 1.095
-0.43696654 0.1986676 1.095
0.22176692 0.41840574 1.1140001
-0.4476622 0.19884904 1.0960001
0.21205994 0.41990808 1.118
-0.45837665 0.19903046 1.097
0.20359044 0.41690335 1.11
0.40145063 0.27234751 0.96700007
-0.46910986 0.1992119 1.098
0.19036984 0.41840574 1.1140001
0.39842242 0.27234751 0.96700007
-0.47986189 0.19939333 1.0990001
0.18388662 0.41603455 1.1170001
0.38893512 0.27509093 0.96600002
-0.48674509 0.19939333 1.0990001
-0.23960963 0.22514264 1.028
0.1691701 0.14678362 1.2690001
-0.52996606 0.20011905 1.103
-0.24950986 0.22536166 1.029
-0.50967729 0.5936721 1.3080001
0.15724824 0.14678362 1.2690001
-0.53687429 0.20011905 1.103
-0.259177 0.22536166 1.029
-0.512595 0.5963971 1.3050001
0.14930032 0.14678362 1.2690001
-0.54773277 0.2003005 1.1040001
0.21566136 0.44237655 1.2620001
-0.26884413 0.22536166 1.029
0.1372702 0.14666794 1.268
-0.55810452 0.2003005 1.1040001
0.20428973 0.4473896 1.2650001
-0.27824062 0.22514264 1.028
0.12943055 0.14678362 1.2690001
-0.56899112 0.20048191 1.105
0.19636689 0.4473896 1.2650001
-0.28761831 0.22492364 1.0270001
0.11667529 0.14968838 1.2600001
-0.57989663 0.20066336 1.1060001
0.18829505 0.44307762 1.2640001
-0.49960011 0.3686637 1.1780001
-0.29697719 0.22470462 1.026
0.10105236 0.14992598 1.2620001
-0.5868237 0.20066336 1.1060001
-0.50115287 0.36709893 1.1730001
0.38498592 0.16703613 1.187
-0.30952716 0.22448564 1.0250001
0.097100317 0.14992598 1.2620001
-0.59721416 0.20066336 1.1060001
0.37755159 0.16703613 1.187
-0.31946808 0.22470462 1.026
0.08919625 0.14992598 1.2620001
-0.60705531 0.20048191 1.105
-0.53979474 0.5068233 1.1090001
-0.32942784 0.22492364 1.0270001
0.07379517 0.14678362 1.2690001
-0.61977303 0.20011905 1.103
0.75964165 0.74287057 1.4740001
-0.63928127 0.1986676 1.095
0.73866373 0.74955124 1.4690001
-0.65904456 0.19739759 1.0880001
0.16698465 0.21998064 1.034
-0.12720348 0.19880453 1.115
0.15727054 0.21998064 1.034
-0.13780203 0.19898283 1.1160001
0.14176255 0.21779068 1.039
-0.14479169 0.19898283 1.1160001
-0.14908376 0.20005265 1.1220001
-0.15611099 0.20005265 1.1220001
-0.20714022 0.19844793 1.113
-0.21759653 0.19844793 1.113
-0.24896541 0.19844793 1.113
-0.25942171 0.19844793 1.113
-0.997181 0.75306475 1.485
-0.38905144 0.19702153 1.105
-0.39907113 0.19684324 1.1040001
-0.46821606 0.19684324 1.1040001
-0.47902128 0.19702153 1.105
-0.48984537 0.19719984 1.1060001
-0.49722147 0.19737813 1.107
0.36320704 0.2701548 0.97000003
-0.50808001 0.19755644 1.108
0.19498336 0.66469079 1.3970001
0.35713181 0.27926764 0.97000003
-0.51895732 0.19773474 1.1090001
0.34837773 0.27955556 0.97100008
-0.52590311 0.19773474 1.1090001
0.27572495 0.27993211 0.98300004
-0.59750855 0.19844793 1.113
0.26956829 0.27685377 0.98300004
-0.60796481 0.19844793 1.113
0.24087913 0.27879301 0.97900003
-0.62952209 0.19755644 1.108
0.23781332 0.27879301 0.97900003
-0.63762122 0.19684324 1.1040001
0.74888247 0.74596518 1.4710001
-0.64849979 0.19595174 1.0990001
-0.66988117 0.19416875 1.0890001
-0.27624756 0.089652546 1.4360001
0.3479788 0.19548801 1.1160001
-0.5153771 0.64701998 1.378
-0.281331 0.089839831 1.439
0.33749434 0.19548801 1.1160001
-0.29894024 0.089714974 1.437
0.32700986 0.19548801 1.1160001
-0.31605825 0.089465246 1.4330001
0.30925834 0.19531283 1.115
-0.32594058 0.089714974 1.437
0.29851532 0.19513768 1.1140001
-0.33540687 0.089839831 1.439
0.28779104 0.1949625 1.113
0.27733475 0.1949625 1.113
-0.64397079 0.25808167 0.95900005
-0.57673728 0.089527674 1.434
0.047296267 0.1949625 1.113
-0.64994478 0.080714852 1.437
-0.029515225 0.19583833 1.118
0.19543691 0.44120902 1.1650001
-0.65802777 0.080602519 1.4350001
-0.036517404 0.19583833 1.118
-0.66655058 0.080546349 1.434
-0.047020674 0.19583833 1.118
-0.67600298 0.080602519 1.4350001
-0.057575397 0.19601351 1.1190001
-0.51747364 0.36066386 1.077
-0.068088062 0.19601351 1.1190001
-0.5251925 0.36809155 1.079
-0.071592279 0.19601351 1.1190001
0.18667556 0.69576728 1.434
-0.53621197 0.36974913 1.074
-0.085532658 0.19583833 1.118
0.22301039 0.60793173 1.2370001
0.19382168 0.21779068 1.039
-0.54864162 0.36906061 1.072
-0.099447988 0.19566318 1.1170001
0.1873143 0.21779068 1.039
-0.1064439 0.19566318 1.1170001
0.20347703 0.60356963 1.2360001
0.17755321 0.21779068 1.039
-0.11714716 0.19601351 1.1190001
-0.47114086 0.77727699 1.427
-0.51561034 0.52830273 1.156
0.13930872 0.21577589 1.0450001
-0.15680668 0.19741486 1.1270001
-0.48115155 0.77626753 1.4170001
-0.52770883 0.52952033 1.143
0.1281282 0.21998064 1.034
-0.16971046 0.19601351 1.1190001
-0.17671892 0.19601351 1.1190001
-0.18723157 0.19601351 1.1190001
-0.19424 0.19601351 1.1190001
-0.22907732 0.19583833 1.118
-0.23607948 0.19583833 1.118
-0.40782434 0.19426183 1.1090001
-0.41786587 0.19408666 1.108
-0.42788866 0.19391148 1.107
-0.4382886 0.19391148 1.107
-0.44909385 0.19408666 1.108
-0.4599179 0.19426183 1.1090001
-0.51716036 0.33157721 1.049
-0.50734276 0.19513768 1.1140001
0.19142722 0.66754556 1.4030001
-0.48658425 0.58316171 1.312
-0.52373034 0.33157721 1.049
-0.51827329 0.19531283 1.115
-0.49480146 0.58316171 1.312
-0.53358537 0.33486223 1.049
-0.52922255 0.19548801 1.1160001
-0.5045523 0.58906084 1.3160001
-0.53669274 0.19566318 1.1170001
-0.54718661 0.19566318 1.1170001
-0.55768049 0.19566318 1.1170001
-0.56868297 0.19583833 1.118
-0.57970434 0.19601351 1.1190001
0.28159481 0.27964732 0.98200005
-0.58320856 0.19601351 1.1190001
0.25725496 0.27993211 0.98300004
-0.61769825 0.19583833 1.118
0.24726306 0.27907777 0.98000002
-0.6270777 0.19548801 1.1160001
-0.63875937 0.19478734 1.1120001
0.22838241 0.27850825 0.97800004
-0.64398193 0.19426183 1.1090001
0.73706168 0.74337453 1.475
-0.65882456 0.19251014 1.0990001
0.72831702 0.74387854 1.4760001
-0.6673227 0.19198464 1.0960001
0.71907264 0.74387854 1.4760001
-0.67014289 0.19180946 1.095
-0.67670172 0.19075847 1.0890001
-0.68907487 0.19040811 1.087
-0.52542883 0.39880329 1.108
-0.25376293 0.089652546 1.4360001
0.36195812 0.19199318 1.1160001
-0.26706758 0.08959011 1.4350001
0.35942692 0.19250929 1.1190001
-0.50784975 0.64410388 1.381
-0.2774018 0.085511416 1.442
0.34664473 0.19319743 1.123
-0.51328707 0.6498372 1.3840001
-0.35937512 0.25773832 0.96900004
-0.28742641 0.08580792 1.447
0.33961123 0.19319743 1.123
-0.29195777 0.08580792 1.447
-0.36847857 0.25470385 0.96900004
0.32906097 0.19319743 1.123
-0.3092261 0.085570715 1.4430001
-0.37758204 0.25470385 0.96900004
0.31851077 0.19319743 1.123
-0.4686166 0.25773832 0.96900004
-0.39218938 0.081388891 1.4490001
0.22707532 0.19319743 1.123
-0.47772008 0.25773832 0.96900004
-0.40071073 0.081276543 1.447
0.21652508 0.19319743 1.123
-0.41287327 0.080995701 1.442
0.20949158 0.19319743 1.123
-0.49896148 0.25773832 0.96900004
0.19894134 0.19319743 1.123
-0.50806493 0.25773832 0.96900004
0.1883911 0.19319743 1.123
-0.51966602 0.25747237 0.96800005
-0.44540802 0.081164204 1.4450001
0.1776825 0.19302541 1.1220001
0.28956568 0.21883875 1.044
-0.62727946 0.081276543 1.447
-0.0085467435 0.19319743 1.123
0.27975759 0.21883875 1.044
-0.6354627 0.081164204 1.4450001
-0.01911399 0.19336948 1.1240001
0.2646724 0.21660182 1.049
-0.64724135 0.080939531 1.4410001
-0.029700026 0.1935415 1.125
0.25810236 0.21660182 1.049
-0.036746047 0.1935415 1.125
0.24824733 0.21660182 1.049
-0.047357135 0.19371355 1.126
0.23839229 0.21660182 1.049
-0.057935562 0.19371355 1.126
0.22853725 0.21660182 1.049
-0.5159446 0.3677547 1.0880001
-0.065045565 0.19388558 1.1270001
0.21847378 0.21639535 1.0480001
-0.52326435 0.36911497 1.082
-0.079092413 0.19371355 1.126
0.20842905 0.21618886 1.0470001
0.18396355 0.69802547 1.4480001
-0.086068191 0.1935415 1.125
0.19840312 0.21598236 1.046
0.17905729 0.69657928 1.4450001
-0.096551321 0.19336948 1.1240001
0.21966809 0.60940605 1.24
0.18839601 0.21577589 1.0450001
-0.10711096 0.19336948 1.1240001
0.17219819 0.21598236 1.046
-0.11787997 0.19371355 1.126
0.16892257 0.21598236 1.046
-0.12868656 0.19405761 1.128
0.15909572 0.21598236 1.046
-0.13940726 0.19422966 1.1290001
-0.46732616 0.77836639 1.429
0.14912619 0.21577589 1.0450001
-0.14647834 0.19422966 1.1290001
0.12633955 0.21598236 1.046
-0.1673945 0.19388558 1.1270001
0.11345361 0.21639535 1.0480001
-0.17782439 0.19371355 1.126
0.10699184 0.21660182 1.049
-0.18840282 0.19371355 1.126
0.09022145 0.21904838 1.0450001
-0.19915795 0.19388558 1.1270001
0.086948961 0.21904838 1.0450001
-0.20993187 0.19405761 1.128
0.07713151 0.21904838 1.0450001
-0.21699668 0.19405761 1.128
0.067249626 0.21883875 1.044
-0.22406149 0.19405761 1.128
0.057716671 0.21660182 1.049
-0.23755762 0.1935415 1.125
0.047816012 0.21639535 1.0480001
-0.2485678 0.19388558 1.1270001
0.037970372 0.21639535 1.0480001
-0.2591556 0.19388558 1.1270001
0.028124735 0.21639535 1.0480001
0.16553122 0.30794185 1.0250001
-0.26621416 0.19388558 1.1270001
0.015011523 0.21660182 1.049
-0.27631074 0.1935415 1.125
-0.31338352 0.19250929 1.1190001
0.36247265 0.13181609 1.2780001
-0.32710782 0.19233724 1.118
-0.049963892 0.21998064 1.034
0.3507404 0.13592449 1.279
-0.33730912 0.19216523 1.1170001
-0.059678003 0.21998064 1.034
0.34592184 0.13960154 1.276
-0.347803 0.19216523 1.1170001
-0.069392115 0.21998064 1.034
-0.35861763 0.19233724 1.118
-0.36912087 0.19233724 1.118
-0.37996373 0.19250929 1.1190001
-0.38697219 0.19250929 1.1190001
-0.3971296 0.19233724 1.118
-0.40690365 0.19199318 1.1160001
-0.41701415 0.19182113 1.115
-0.13792242 0.21758108 1.0380001
-0.42710584 0.19164911 1.1140001
-0.14767411 0.21758108 1.0380001
-0.43757153 0.19164911 1.1140001
-0.44803721 0.19164911 1.1140001
-0.45891446 0.19182113 1.115
-0.46631572 0.19199318 1.1160001
-0.48431021 0.33157721 1.049
-0.47765464 0.19233724 1.118
-0.49088022 0.33157721 1.049
-0.48859459 0.19250929 1.1190001
-0.49209881 0.19250929 1.1190001
0.70186526 0.79434574 1.45
-0.24731696 0.21946761 1.0470001
-0.54758489 0.33741599 1.057
-0.53653616 0.19336948 1.1240001
0.69732451 0.79434574 1.45
-0.25715321 0.21946761 1.0470001
-0.55751508 0.33741599 1.057
-0.54709584 0.19336948 1.1240001
0.68871766 0.79489356 1.4510001
-0.26698944 0.21946761 1.0470001
-0.55765545 0.19336948 1.1240001
0.67601645 0.79598922 1.4530001
-0.27983689 0.21925798 1.046
-0.56821507 0.19336948 1.1240001
0.66007948 0.79872835 1.4580001
-0.28611436 0.21904838 1.0450001
-0.57928962 0.1935415 1.125
0.65596324 0.79927617 1.4590001
-0.29377952 0.21660182 1.049
-0.58685684 0.19371355 1.126
-0.51770967 0.49475026 1.1290001
0.38833526 0.15877382 1.2090001
-0.3096132 0.21618886 1.0470001
-0.5979659 0.19388558 1.1270001
-0.52245665 0.49959895 1.1240001
0.37697706 0.15877382 1.2090001
-0.31944942 0.21618886 1.0470001
-0.60855365 0.19388558 1.1270001
-0.49623439 0.74343711 1.3970001
-0.32960019 0.21639535 1.0480001
-0.61859208 0.19371355 1.126
-0.3364847 0.21660182 1.049
-0.62805301 0.19336948 1.1240001
-0.64512944 0.19216523 1.1170001
-0.65268856 0.19130504 1.1120001
0.2182979 0.27431899 0.97400004
-0.65787351 0.19078892 1.1090001
0.20893274 0.27403736 0.97300005
-0.66075003 0.19061688 1.108
-0.5201326 0.39575413 1.1190001
-0.32599577 0.25773832 0.96900004
-0.25606024 0.081388891 1.4490001
0.36135411 0.1900185 1.125
-0.49920034 0.64410388 1.381
-0.26513553 0.081388891 1.4490001
0.3520323 0.19069414 1.1290001
-0.27951792 0.081613563 1.4530001
-0.3497456 0.25043103 0.97600007
0.34880546 0.19086303 1.13
-0.28861824 0.081613563 1.4530001
-0.35854706 0.25017443 0.97500002
0.33848876 0.19103193 1.131
-0.29771855 0.081613563 1.4530001
-0.36923909 0.25218883 0.97100008
0.32757342 0.19086303 1.13
-0.30681887 0.081613563 1.4530001
-0.37836137 0.25218883 0.97100008
0.31695744 0.19086303 1.13
-0.31826383 0.085570715 1.4430001
-0.38971996 0.25166938 0.96900004
0.3096059 0.19069414 1.1290001
-0.39882344 0.25166938 0.96900004
-0.3273015 0.085570715 1.4430001
0.29873443 0.19052522 1.128
-0.40792689 0.25166938 0.96900004
-0.33703846 0.08574862 1.4460001
0.28813723 0.19052522 1.128
-0.41963133 0.25444099 0.96800005
-0.34657362 0.085867219 1.4480001
0.27729398 0.19035633 1.1270001
-0.43827173 0.25470385 0.96900004
-0.36873615 0.08574862 1.4460001
0.25634557 0.19052522 1.128
-0.44737521 0.25773832 0.96900004
-0.3772701 0.085630022 1.4440001
0.24596623 0.19069414 1.1290001
0.22954686 0.33455133 1.069
-0.38791925 0.081445053 1.45
-0.45998734 0.25496671 0.97000003
0.23556808 0.19086303 1.13
-0.46910021 0.25496671 0.97000003
0.22849074 0.19086303 1.13
-0.47919911 0.25244856 0.97200006
0.21787474 0.19086303 1.13
0.1927228 0.3312037 1.069
-0.48983791 0.25017443 0.97500002
0.20725873 0.19086303 1.13
0.189198 0.3308939 1.0680001
-0.49899775 0.25017443 0.97500002
0.19664273 0.19086303 1.13
0.17899671 0.33058405 1.067
-0.50815755 0.25017443 0.97500002
0.18956539 0.19086303 1.13
-0.51731741 0.25017443 0.97500002
0.17894939 0.19086303 1.13
-0.52790117 0.25244856 0.97200006
0.16833338 0.19086303 1.13
-0.5389654 0.2519291 0.97000003
0.15771738 0.19086303 1.13
-0.47807428 0.081332713 1.4480001
-0.54997963 0.25140965 0.96800005
0.14697121 0.19069414 1.1290001
-0.51341599 0.50762433 1.238
-0.4829421 0.081388891 1.4490001
-0.55791855 0.25089023 0.96600002
0.13990013 0.19069414 1.1290001
-0.49484161 0.085630022 1.4440001
-0.5694288 0.2506305 0.96500003
0.129179 0.19052522 1.128
-0.53280038 0.50374746 1.238
-0.50875956 0.085689321 1.4450001
-0.57789522 0.25037077 0.96400005
0.11858178 0.19052522 1.128
-0.51780981 0.085689321 1.4450001
-0.58935857 0.25011107 0.96300006
0.10798457 0.19052522 1.128
-0.52831846 0.081388891 1.4490001
-0.59840566 0.25011107 0.96300006
0.097387359 0.19052522 1.128
-0.53665197 0.081276543 1.447
-0.60856664 0.25233817 0.96000004
0.086790137 0.19052522 1.128
0.19047211 0.7472766 1.396
0.36322272 0.21660182 1.049
-0.54948556 0.081164204 1.4450001
-0.61951548 0.25011107 0.96300006
0.079654656 0.19035633 1.1270001
0.3599377 0.21660182 1.049
-0.55853581 0.081164204 1.4450001
-0.62856263 0.25011107 0.96300006
0.06906683 0.19035633 1.1270001
0.34874776 0.21904838 1.0450001
-0.567586 0.081164204 1.4450001
-0.6389339 0.2506305 0.96500003
0.058427121 0.19018741 1.126
0.33925465 0.21925798 1.046
-0.57703531 0.081220381 1.4460001
-0.64934283 0.25114995 0.96700007
0.040832642 0.19035633 1.1270001
-0.52975237 0.6627984 1.307
0.32942778 0.21925798 1.046
-0.58690244 0.081332713 1.4480001
-0.65910834 0.25140965 0.96800005
0.037303369 0.19035633 1.1270001
0.31929544 0.21904838 1.0450001
-0.66585821 0.25166938 0.96900004
-0.59638304 0.081388891 1.4490001
0.026739253 0.19052522 1.128
0.30947796 0.21904838 1.0450001
-0.60999596 0.081388891 1.4490001
-0.67962503 0.25114995 0.96700007
0.016156349 0.19069414 1.1290001
0.29966047 0.21904838 1.0450001
-0.68973678 0.25233817 0.96000004
-0.61864394 0.081332713 1.4480001
0.0020142028 0.19069414 1.1290001
0.28931287 0.21453695 1.0550001
-0.0086000171 0.19086303 1.13
0.27940145 0.21453695 1.0550001
-0.019233027 0.19103193 1.131
0.26949006 0.21453695 1.0550001
-0.029884828 0.19120085 1.1320001
0.25957865 0.21453695 1.0550001
-0.03700735 0.19136974 1.133
0.24966724 0.21453695 1.0550001
-0.04765154 0.19136974 1.133
0.23975585 0.21453695 1.0550001
-0.058347184 0.19153866 1.1340001
-0.39886409 0.10760795 1.378
0.22984444 0.21453695 1.0550001
-0.5138098 0.3642579 1.098
-0.069000766 0.19153866 1.1340001
-0.40719903 0.10752987 1.3770001
0.21972457 0.21433358 1.054
-0.076103151 0.19153866 1.1340001
-0.41612527 0.10760795 1.378
0.20418528 0.21203402 1.059
0.18459879 0.6913355 1.4530001
-0.083132163 0.19136974 1.133
-0.4207457 0.10768605 1.3790001
0.19755261 0.21203402 1.059
0.17525689 0.69947165 1.4510001
-0.090148658 0.19120085 1.1320001
0.18742649 0.2118338 1.0580001
0.16616909 0.69492781 1.4510001
-0.10777802 0.19103193 1.131
0.17748691 0.2118338 1.0580001
-0.1186128 0.19136974 1.133
-0.44775355 0.77876556 1.4380001
0.16754732 0.2118338 1.0580001
-0.12948516 0.19170757 1.1350001
-0.45194221 0.77822393 1.437
0.15760773 0.2118338 1.0580001
-0.13659382 0.19170757 1.1350001
-0.46349904 0.77945584 1.4310001
0.14752856 0.21163358 1.057
-0.14738652 0.19187647 1.136
-0.51320761 0.5296753 1.1670001
0.13759838 0.21163358 1.057
-0.15833716 0.19221427 1.138
0.12127709 0.21203402 1.059
-0.16190089 0.19221427 1.138
0.11796076 0.21203402 1.059
-0.17892987 0.19136974 1.133
0.39723504 0.23893756 0.97900003
0.10109194 0.21474028 1.056
-0.18974137 0.19153866 1.1340001
0.38803762 0.23893756 0.97900003
0.091257483 0.21494365 1.057
-0.19684376 0.19153866 1.1340001
0.087947413 0.21494365 1.057
-0.20768034 0.19170757 1.1350001
0.078017227 0.21494365 1.057
-0.21853568 0.19187647 1.136
0.068022609 0.21474028 1.056
-0.22545196 0.19170757 1.1350001
0.058046795 0.21453695 1.0550001
-0.23903577 0.19120085 1.1320001
0.99951649 0.79906476 1.4670001
0.048089765 0.21433358 1.054
-0.24677792 0.19170757 1.1350001
0.98573446 0.79906476 1.4670001
0.038368914 0.21203402 1.059
-0.25388658 0.19170757 1.1350001
0.97654641 0.79906476 1.4670001
0.024985082 0.21433358 1.054
-0.26431647 0.19153866 1.1340001
0.96735841 0.79906476 1.4670001
0.015097385 0.21453695 1.0550001
-0.2711795 0.19136974 1.133
0.95751721 0.79852009 1.4660001
0.0018839664 0.21474028 1.056
-0.2813262 0.19103193 1.131
0.0084415013 0.21660182 1.049
-0.28789979 0.19069414 1.1290001
-0.0079455031 0.21883875 1.044
-0.29143533 0.19069414 1.1290001
-0.017753564 0.21883875 1.044
-0.30503619 0.19035633 1.1270001
-0.027693624 0.21660182 1.049
-0.31534392 0.19018741 1.126
-0.030978635 0.21660182 1.049
-0.32915589 0.1900185 1.125
-0.040794745 0.21639535 1.0480001
0.35266003 0.13264121 1.286
-0.3397249 0.1900185 1.125
0.19964953 0.71996218 1.3690001
-0.07682205 0.21618886 1.0470001
-0.36790898 0.1900185 1.125
-0.086741067 0.21639535 1.0480001
-0.37881446 0.19018741 1.126
-0.70995665 0.77900666 1.4220001
-0.09667886 0.21660182 1.049
-0.38939291 0.19018741 1.126
-0.71491218 0.77955449 1.4230001
-0.51995802 0.63758349 1.273
-0.10940015 0.21904838 1.0450001
-0.39961609 0.1900185 1.125
-0.40945593 0.1896807 1.123
-0.49839866 0.3289181 1.051
-0.48373801 0.1898496 1.1240001
0.75635451 0.79434574 1.45
-0.19851421 0.21660182 1.049
-0.49746281 0.33378983 1.056
-0.48769134 0.1900185 1.125
-0.20836924 0.21660182 1.049
-0.50219238 0.33805445 1.059
-0.4987033 0.19018741 1.126
-0.21822429 0.21660182 1.049
-0.51962537 0.33975899 1.054
-0.50620472 0.19035633 1.1270001
-0.22150929 0.21660182 1.049
-0.52902496 0.33943668 1.0530001
-0.51770967 0.19069414 1.1290001
-0.23702708 0.21904838 1.0450001
-0.53789395 0.33879194 1.051
-0.52478075 0.19069414 1.1290001
-0.23997575 0.215147 1.0580001
0.1898331 0.66861862 1.424
0.16897133 0.1379437 1.2980001
-0.52878422 0.19086303 1.13
-0.24683522 0.21535034 1.059
0.15677701 0.1379437 1.2980001
-0.53987759 0.19103193 1.131
-0.25015152 0.21535034 1.059
0.14051794 0.1379437 1.2980001
-0.54696119 0.19103193 1.131
-0.26877445 0.21763425 1.054
0.13645315 0.1379437 1.2980001
-0.55758661 0.19103193 1.131
-0.27668214 0.21535034 1.059
0.12842247 0.13804998 1.299
-0.56821197 0.19103193 1.131
-0.28304729 0.215147 1.0580001
-0.57883739 0.19103193 1.131
0.65184075 0.79982394 1.46
0.39090484 0.15220219 1.217
-0.2954599 0.21453695 1.0550001
-0.589984 0.19120085 1.1320001
0.6444574 0.79743069 1.4640001
-0.51516151 0.49913245 1.1390001
0.38709372 0.15220219 1.217
-0.3065291 0.21203402 1.059
-0.59760129 0.19136974 1.133
0.6324268 0.79960942 1.4680001
0.37596908 0.1561415 1.2180001
-0.31949243 0.2118338 1.0580001
-0.60824543 0.19136974 1.133
0.62782967 0.79960942 1.4680001
-0.49132332 0.74929094 1.4080001
0.36773577 0.15969311 1.2160001
-0.32974339 0.21203402 1.059
0.071471833 0.13804998 1.299
-0.61888963 0.19136974 1.133
0.35689783 0.15995575 1.2180001
-0.3330597 0.21203402 1.059
0.067352049 0.1379437 1.2980001
-0.62842256 0.19103193 1.131
-0.34865084 0.21474028 1.056
0.059176877 0.13783742 1.2970001
-0.63494426 0.19086303 1.13
-0.34862486 0.21925798 1.046
-0.63735288 0.19052522 1.128
-0.35845169 0.21925798 1.046
-0.64622682 0.1900185 1.125
-0.64859474 0.1896807 1.123
-0.65621018 0.18883617 1.118
0.066157646 0.081445053 1.45
-0.62886816 0.14135204 1.2920001
-0.007435591 0.2506876 0.97700006
0.20871802 0.26766795 0.97200006
-0.66768956 0.18714711 1.108
-0.46254617 0.76286888 1.442
0.14920343 0.20734093 1.069
-0.14829472 0.18947941 1.143
-0.51260948 0.51814663 1.174
0.13916051 0.20734093 1.069
-0.15572549 0.18981098 1.1450001
-0.38826558 0.18782167 1.133
-0.41871467 0.18715858 1.1290001
-0.42894098 0.18699281 1.128
-0.43914858 0.18682705 1.1270001
-0.44973636 0.18682705 1.1270001
-0.45720023 0.18699281 1.128
-0.46821219 0.18715858 1.1290001
-0.48806006 0.32860518 1.0500001
-0.47174773 0.18715858 1.1290001
-0.50934887 0.18798746 1.1340001
-0.51690668 0.18815324 1.1350001
-0.52803451 0.188319 1.136
-0.53918105 0.18848479 1.1370001
-0.54678267 0.18865055 1.138
-0.5574739 0.18865055 1.138
-0.568165 0.18865055 1.138
-0.57885617 0.18865055 1.138
-0.58598363 0.18865055 1.138
-0.59719914 0.18881632 1.1390001
-0.600766 0.18881632 1.1390001
-0.61860025 0.18881632 1.1390001
-0.6287483 0.18865055 1.138
-0.63831568 0.188319 1.136
-0.65206009 0.18715858 1.1290001
-0.35440406 0.24137819 0.98900002
0.33909309 0.18622532 1.1450001
-0.36914167 0.24089007 0.98700005
0.32833615 0.18622532 1.1450001
-0.37532336 0.24089007 0.98700005
0.31730187 0.18606268 1.1440001
-0.38729402 0.240646 0.98600006
0.30655432 0.18606268 1.1440001
-0.39923957 0.24040194 0.98500007
0.29912758 0.18590003 1.143
-0.44633275 0.76604313 1.4480001
0.16849747 0.20970313 1.064
-0.1273732 0.18671325 1.148
-0.45571628 0.76203454 1.4490001
0.15850152 0.20970313 1.064
-0.13468049 0.18687589 1.149
-0.37248743 0.18524948 1.1390001
-0.39745542 0.18524948 1.1390001
-0.4077976 0.18508682 1.138
-0.41775331 0.18476154 1.136
-0.42804855 0.18459891 1.1350001
-0.43832499 0.18443626 1.1340001
-0.44897857 0.18443626 1.1340001
-0.45608094 0.18443626 1.1340001
-0.4675577 0.18476154 1.136
-0.47865108 0.18492419 1.1370001
-0.48976317 0.18508682 1.138
-0.49732727 0.18524948 1.1390001
-0.53891808 0.18606268 1.1440001
-0.54656041 0.18622532 1.1450001
-0.55731738 0.18622532 1.1450001
-0.56807429 0.18622532 1.1450001
-0.5788312 0.18622532 1.1450001
-0.58958817 0.18622532 1.1450001
0.64249516 0.78228527 1.47
-0.51115006 0.48784491 1.146
0.38995638 0.14948846 1.2260001
-0.30493069 0.20990023 1.0650001
-0.59675944 0.18622532 1.1450001
0.63832569 0.78281748 1.4710001
0.37843853 0.14948846 1.2260001
-0.3179723 0.20970313 1.064
-0.60804695 0.18638796 1.146
0.62911266 0.78742397 1.4710001
-0.49071807 0.73736995 1.419
-0.32796824 0.20970313 1.064
-0.61881322 0.18638796 1.146
0.61654794 0.78441399 1.4740001
-0.33494675 0.20990023 1.0650001
-0.62903017 0.18622532 1.1450001
-0.63866955 0.18590003 1.143
-0.64713508 0.18524948 1.1390001
-0.65311998 0.18492419 1.1370001
-0.66961515 0.18167135 1.1170001
-0.67539954 0.18134604 1.115
0.22040258 0.3684307 1.09
0.057194199 0.081613563 1.4530001
-0.63696009 0.14135204 1.2920001
-0.016614206 0.2506876 0.97700006
0.19958638 0.26766795 0.97200006
-0.67871094 0.18037021 1.1090001
0.2107408 0.36944473 1.0930001
0.048060771 0.081557386 1.452
-0.64809322 0.14113323 1.2900001
-0.025766423 0.25043103 0.97600007
0.18569471 0.26959559 0.97900003
-0.68912965 0.18037021 1.1090001
-0.34856191 0.24162225 0.99000007
0.34507295 0.18391575 1.153
0.33785155 0.18391575 1.153
0.32673588 0.18375625 1.1520001
0.20425589 0.18391575 1.153
0.19703449 0.18391575 1.153
0.18981311 0.18391575 1.153
0.17898104 0.18391575 1.153
-0.49807197 0.63807571 1.192
0.16814893 0.18391575 1.153
-0.65968198 0.24089007 0.98700005
0.037965361 0.18295871 1.1470001
-0.34872773 0.76624173 1.457
0.26886269 0.20590156 1.079
-0.026828531 0.18391575 1.153
-0.35809875 0.76676762 1.4580001
0.25872582 0.20590156 1.079
-0.037693277 0.18407527 1.154
-0.36723039 0.76676762 1.4580001
0.24858893 0.20590156 1.079
-0.048618872 0.18439429 1.156
-0.37662014 0.76729357 1.4590001
0.2339838 0.20831071 1.074
-0.059530593 0.1845538 1.1570001
-0.38575807 0.76729357 1.4590001
0.22725721 0.20831071 1.074
-0.066777036 0.1845538 1.1570001
-0.39946494 0.76729357 1.4590001
0.2171673 0.20831071 1.074
0.19201286 0.68794584 1.475
-0.074023478 0.1845538 1.1570001
-0.40375692 0.76676762 1.4580001
0.20688462 0.20811677 1.0730001
0.1873938 0.68794584 1.475
-0.081199668 0.18439429 1.156
-0.41774073 0.76272458 1.4590001
0.19790457 0.20590156 1.079
0.17815569 0.68794584 1.475
-0.095514491 0.18407527 1.154
-0.4223097 0.76272458 1.4590001
0.1875937 0.20571074 1.0780001
-0.10987449 0.18391575 1.153
-0.43998152 0.76167899 1.457
0.17746621 0.20571074 1.0780001
-0.11719745 0.18407527 1.154
-0.44849041 0.76063347 1.455
0.1671835 0.20551991 1.077
-0.12814988 0.18423478 1.1550001
-0.45273551 0.76011074 1.4540001
0.15691958 0.20532909 1.0760001
-0.13924144 0.1845538 1.1570001
0.14681089 0.20532909 1.0760001
-0.14648788 0.1845538 1.1570001
-0.51171213 0.51731998 1.189
0.13008384 0.20551991 1.077
-0.15762956 0.18487282 1.159
0.12345298 0.20571074 1.0780001
-0.16474625 0.18471332 1.1580001
0.11680958 0.20590156 1.079
-0.17547365 0.1845538 1.1570001
0.3990933 0.22817667 0.99900007
0.10617839 0.20831071 1.074
-0.18996653 0.1845538 1.1570001
0.38970798 0.22817667 0.99900007
0.099544391 0.20850468 1.075
-0.19721298 0.1845538 1.1570001
0.086158745 0.20869865 1.0760001
-0.20826249 0.18471332 1.1580001
0.079345807 0.20850468 1.075
-0.21933077 0.18487282 1.159
0.069246508 0.20850468 1.075
-0.22658974 0.18487282 1.159
0.039093539 0.20590156 1.079
-0.25858402 0.18439429 1.156
0.028956665 0.20590156 1.079
-0.2658242 0.18439429 1.156
0.018732581 0.20831071 1.074
-0.27620578 0.18407527 1.154
-0.3675991 0.18279919 1.146
-0.37869558 0.18295871 1.1470001
-0.38947132 0.18295871 1.1470001
-0.39665514 0.18295871 1.1470001
-0.40707558 0.18279919 1.146
-0.41711271 0.18248017 1.1440001
-0.42748624 0.18232065 1.143
-0.437841 0.18216115 1.1420001
-0.44817692 0.18200164 1.141
-0.45929846 0.18216115 1.1420001
-0.46685937 0.18232065 1.143
-0.47801539 0.18248017 1.1440001
-0.48919016 0.18263969 1.1450001
-0.49679494 0.18279919 1.146
-0.50800419 0.18295871 1.1470001
-0.51968443 0.18327771 1.149
-0.52328265 0.18327771 1.149
-0.64562035 0.18327771 1.149
-0.65656644 0.18232065 1.143
0.23137142 0.65363169 1.2
-0.6608218 0.1815231 1.138
-0.66973776 0.18008751 1.1290001
-0.32996044 0.24162225 0.99000007
0.36107481 0.18108699 1.1580001
-0.3392612 0.24162225 0.99000007
0.35775712 0.18124336 1.159
0.35443321 0.18139973 1.1600001
0.34716797 0.18139973 1.1600001
0.33990273 0.18139973 1.1600001
0.32900488 0.18139973 1.1600001
0.3178328 0.18124336 1.159
0.30694434 0.18124336 1.159
0.29968539 0.18124336 1.159
0.28854775 0.18108699 1.1580001
0.27766871 0.18108699 1.1580001
0.26678964 0.18108699 1.1580001
0.25953695 0.18108699 1.1580001
0.2486579 0.18108699 1.1580001
0.23798417 0.18124336 1.159
0.22709569 0.18124336 1.159
0.21983674 0.18124336 1.159
0.21276118 0.18139973 1.1600001
0.20912859 0.18139973 1.1600001
0.22389057 0.57894337 1.36
0.1984016 0.18155611 1.161
0.21235564 0.57378095 1.368
0.18749437 0.18155611 1.161
0.17658713 0.18155611 1.161
0.1691698 0.18139973 1.1600001
0.15827195 0.18139973 1.1600001
-0.5046894 0.63700515 1.1900001
0.15087655 0.18124336 1.159
0.14724706 0.18124336 1.159
0.30797639 0.20831071 1.074
0.012922639 0.18077421 1.156
0.29760918 0.20811677 1.0730001
0.0020641566 0.1809306 1.1570001
0.28913644 0.20590156 1.079
-0.0088131158 0.18108699 1.1580001
-0.33526963 0.76676762 1.4580001
0.2789996 0.20590156 1.079
-0.70553577 0.24595848 0.99500006
-0.019709175 0.18124336 1.159
-0.34944576 0.76324731 1.46
0.26696002 0.20364878 1.085
-0.35932678 0.76023418 1.4630001
0.25360256 0.20383647 1.0860001
-0.36874163 0.76075387 1.4640001
0.24680081 0.20383647 1.0860001
-0.37842709 0.76179314 1.4660001
0.236816 0.20402415 1.087
-0.059890758 0.18202525 1.164
