# .PCD v0.7 - Point Cloud Data file format
VERSION 0.7
FIELDS x y z
SIZE 4 4 4
TYPE F F F
COUNT 1 1 1
WIDTH 149
HEIGHT 1
VIEWPOINT 0 0 0 1 0 0 0
POINTS 149
DATA ascii
-0.043884363 0.061184619 1.2260001
-0.050283194 0.061184619 1.2260001
-0.077363901 0.088478729 1.25
-0.085163087 0.08320035 1.2690001
-0.04409913 0.055053912 1.2320001
-0.070103079 0.055277344 1.2370001
-0.037607834 0.087063067 1.23
-0.05774539 0.11448345 1.2490001
-0.078044705 0.043186806 1.261
-0.012685477 0.092584148 1.3080001
-0.071293183 0.10874254 1.258
-0.018676899 0.082085766 1.2520001
-0.031390976 0.055322029 1.238
-0.044313896 0.048860565 1.238
-0.070273086 0.0489395 1.24
-0.050488263 0.055009224 1.2310001
-0.037454955 0.067528322 1.225
-0.064933144 0.12226176 1.2620001
-0.057144359 0.048781633 1.2360001
-0.050898407 0.10727305 1.2410001
-0.012646683 0.085495077 1.304
-0.0257954 0.12410246 1.281
-0.031543113 0.09454681 1.2440001
-0.038188767 0.10796458 1.2490001
-0.094462559 0.085626207 1.3060001
-0.07711634 0.075189166 1.2460001
-0.025654443 0.11677495 1.274
-0.032024879 0.11576668 1.263
-0.044743434 0.1145751 1.25
-0.064572982 0.11503341 1.2550001
-0.079034962 0.11704993 1.2770001
-0.051431589 0.12148672 1.2540001
-0.031340264 0.087487772 1.2360001
-0.037944164 0.048978969 1.2410001
-0.031644538 0.042741582 1.248
-0.019303439 0.11185441 1.294
-0.078601725 0.10977983 1.2700001
-0.043741181 0.08011885 1.222
-0.044134922 0.09371078 1.233
-0.043705389 0.073680557 1.2210001
-0.050078124 0.073680557 1.2210001
-0.038035892 0.10103959 1.2440001
-0.044313896 0.10055225 1.238
-0.063955545 0.10095836 1.243
-0.070896477 0.10160813 1.251
-0.086505294 0.10469455 1.289
-0.045208763 0.12895057 1.263
-0.050119136 0.08011885 1.222
-0.012869745 0.10085499 1.327
-0.019243769 0.098042913 1.2900001
-0.025090609 0.094698817 1.2460001
-0.05691319 0.055009224 1.2310001
-0.037821863 0.094014801 1.2370001
-0.056959428 0.093634784 1.2320001
-0.086639516 0.098118909 1.291
-0.037760708 0.055187967 1.235
-0.077611469 0.049492046 1.2540001
-0.025493346 0.10943407 1.266
-0.025634306 0.056886058 1.273
-0.024969786 0.087770902 1.24
-0.043920159 0.086850725 1.2270001
-0.050283194 0.086779937 1.2260001
-0.06338957 0.087204643 1.2320001
-0.070216417 0.087700121 1.2390001
-0.085230201 0.089894392 1.2700001
-0.019273605 0.10493822 1.2920001
-0.050488263 0.093558781 1.2310001
-0.024869101 0.080971181 1.235
-0.037485532 0.08038111 1.2260001
-0.069933057 0.080905624 1.2340001
-0.070556447 0.094622806 1.245
-0.02488924 0.061683677 1.2360001
-0.012656381 0.078749493 1.3050001
-0.018632146 0.075370207 1.2490001
-0.031086702 0.073982283 1.2260001
-0.037393805 0.073801249 1.223
-0.063029401 0.073921934 1.225
-0.069819719 0.074344352 1.2320001
-0.084961757 0.076396056 1.266
-0.038586248 0.12226176 1.2620001
-0.056728259 0.086850725 1.2270001
-0.078106597 0.10250158 1.2620001
-0.024788555 0.074284002 1.2310001
-0.094607212 0.092584148 1.3080001
-0.077363901 0.068906449 1.25
-0.031872746 0.10865611 1.2570001
-0.050734352 0.048821103 1.2370001
-0.063595377 0.048781633 1.2360001
-0.06426426 0.10796458 1.2490001
-0.018840993 0.069623075 1.263
-0.031162772 0.067748822 1.2290001
-0.043741181 0.067362942 1.222
-0.050119136 0.067362942 1.222
-0.056589559 0.067473195 1.2240001
-0.063132308 0.067638576 1.2270001
-0.069819719 0.067914203 1.2320001
-0.058531355 0.030142847 1.266
-0.051718686 0.12874638 1.261
-0.019288523 0.1185165 1.2930001
-0.070386432 0.042536095 1.2420001
-0.031264193 0.061533958 1.233
-0.056728259 0.061234526 1.2270001
-0.063286662 0.061384238 1.23
-0.071633212 0.11585835 1.2640001
-0.063441023 0.055098593 1.233
-0.077487685 0.055947643 1.2520001
-0.071973249 0.12303679 1.2700001
-0.050693337 0.10038982 1.2360001
-0.086572409 0.11150865 1.2900001
-0.077425793 0.062432263 1.251
-0.056543324 0.073801249 1.223
-0.063646831 0.094014801 1.2370001
-0.031517755 0.049057905 1.243
-0.064109907 0.036169872 1.2460001
-0.038372222 0.11503341 1.2550001
-0.038127616 0.042707335 1.2470001
-0.044528667 0.042604592 1.2440001
-0.057375524 0.042501844 1.2410001
-0.063852645 0.042501844 1.2410001
-0.058346424 0.12884848 1.2620001
-0.051144492 0.11430013 1.2470001
-0.025291977 0.10201424 1.256
-0.051144492 0.036198903 1.2470001
-0.070726462 0.036227927 1.248
-0.031720608 0.10160813 1.251
-0.038280495 0.036344044 1.2520001
-0.044743434 0.036285985 1.25
-0.063132308 0.080446675 1.2270001
-0.077735253 0.095458835 1.256
-0.05760669 0.036169872 1.2460001
-0.031188127 0.080643363 1.23
-0.051677674 0.029999992 1.2600001
-0.044528667 0.10753237 1.2440001
-0.058069021 0.12168048 1.256
-0.038616821 0.030071417 1.263
-0.045137174 0.030023798 1.261
-0.057236824 0.10055225 1.238
-0.056589559 0.080249988 1.2240001
-0.03757726 0.061334338 1.2290001
-0.095185854 0.10001898 1.3160001
-0.024788555 0.067859076 1.2310001
-0.03197417 0.036605302 1.261
-0.050939422 0.042536095 1.2420001
-0.05746799 0.10744593 1.243
-0.03217702 0.12293991 1.2690001
-0.069933057 0.061583865 1.2340001
-0.018930499 0.089823611 1.2690001
-0.044958204 0.12168048 1.256
-0.077054441 0.081626818 1.245
