# .PCD v0.7 - Point Cloud Data file format
VERSION 0.7
FIELDS x y z
SIZE 4 4 4
TYPE F F F
COUNT 1 1 1
WIDTH 717
HEIGHT 1
VIEWPOINT 0 0 0 1 0 0 0
POINTS 717
DATA ascii
-0.088586167 0.19298805 0.99500006
-0.091702066 0.19298805 0.99500006
-0.076275542 0.19025381 0.99700004
-0.082354352 0.18987216 0.99500006
-0.085384354 0.18968132 0.99400002
-0.088497132 0.18968132 0.99400002
-0.091609903 0.18968132 0.99400002
-0.094722681 0.18968132 0.99400002
-0.097933881 0.18987216 0.99500006
-0.10115135 0.19006298 0.99600005
-0.10437507 0.19025381 0.99700004
-0.10760506 0.19044463 0.99800003
-0.11431202 0.19120795 1.0020001
-0.067244589 0.18807012 1.0020001
-0.07619904 0.18694395 0.99600005
-0.079238437 0.18675625 0.99500006
-0.082271576 0.18656854 0.99400002
-0.085298449 0.18638086 0.99300003
-0.088408098 0.18638086 0.99300003
-0.091517739 0.18638086 0.99300003
-0.094627388 0.18638086 0.99300003
-0.097737029 0.18638086 0.99300003
-0.10094823 0.18656854 0.99400002
-0.1041657 0.18675625 0.99500006
-0.11073036 0.18731932 0.99800003
-0.11408383 0.18769471 1
-0.11744983 0.18807012 1.0020001
-0.12010627 0.18731932 0.99800003
-0.070171691 0.18437859 0.99900007
-0.073153369 0.18400946 0.99700004
-0.076122537 0.18364035 0.99500006
-0.079158798 0.18345577 0.99400002
-0.088230036 0.18290208 0.99100006
-0.091333419 0.18290208 0.99100006
-0.094436802 0.18290208 0.99100006
-0.10084668 0.18327121 0.99300003
-0.104061 0.18345577 0.99400002
-0.10728161 0.18364035 0.99500006
-0.11061941 0.18400946 0.99700004
-0.11721539 0.18456315 1
-0.11998593 0.18400946 0.99700004
-0.10228129 0.14666328 0.97700006
-0.064234719 0.18530141 1.0040001
-0.06711036 0.18143159 1
-0.070031203 0.1808873 0.99700004
-0.078999527 0.17998014 0.99200004
-0.082023278 0.17979872 0.99100006
-0.085040756 0.17961729 0.99000007
-0.088141009 0.17961729 0.99000007
-0.097441755 0.17961729 0.99000007
-0.11039751 0.18052444 0.99500006
-0.11998593 0.1808873 0.99700004
-0.1231081 0.1808873 0.99700004
-0.10501737 0.12791207 0.97400004
-0.11745864 0.12817472 0.97600007
-0.10469391 0.10015135 0.97100008
-0.048900831 0.18043964 1.0120001
-0.055239119 0.18043964 1.0120001
-0.075893022 0.17687362 0.99200004
-0.078919895 0.17669533 0.99100006
-0.081940509 0.17651704 0.99000007
-0.11351342 0.17740853 0.99500006
-0.12711653 0.17901324 1.0040001
-0.058004249 0.1760443 1.005
-0.063914828 0.17499329 0.99900007
-0.066841923 0.17446779 0.99600005
-0.072786503 0.17376712 0.99200004
-0.07574001 0.17341678 0.99000007
-0.078760616 0.1732416 0.98900002
-0.081774972 0.17306644 0.98800004
-0.084783055 0.17289127 0.98700005
-0.094055623 0.17289127 0.98700005
-0.097146474 0.17289127 0.98700005
-0.10033889 0.17306644 0.98800004
-0.10353756 0.1732416 0.98900002
-0.10674251 0.17341678 0.99000007
-0.11006466 0.17376712 0.99200004
-0.11328525 0.17394228 0.99300003
-0.11662932 0.17429262 0.99500006
-0.12298462 0.17446779 0.99600005
-0.12724313 0.1760443 1.005
-0.06596949 0.15372063 0.98300004
-0.069047816 0.15372063 0.98300004
-0.072052769 0.15356426 0.98200005
-0.075051464 0.15340789 0.98100007
-0.081112824 0.1532515 0.98000002
-0.093293265 0.15309511 0.97900003
-0.12369806 0.15584189 0.97700006
-0.10217661 0.14040036 0.97600007
-0.10828942 0.14040036 0.97600007
-0.11145991 0.14054421 0.97700006
-0.081692204 0.16980042 0.98700005
-0.093865037 0.16945635 0.98500007
-0.10013577 0.16962838 0.98600006
-0.11428501 0.1280434 0.97500002
-0.10249067 0.15309511 0.97900003
-0.08636038 0.1000482 0.97000003
-0.065231271 0.12156165 0.97200006
-0.060908083 0.16907425 1.001
-0.063722886 0.16822971 0.99600005
-0.066640586 0.167723 0.99300003
-0.087606817 0.16620286 0.98400003
-0.10003422 0.16637176 0.98500007
-0.1032235 0.16654067 0.98600006
-0.11616046 0.16738519 0.99100006
-0.12261418 0.167723 0.99300003
-0.066506371 0.16428182 0.99100006
-0.069399029 0.16378449 0.98800004
-0.081443898 0.16312139 0.98400003
-0.087428756 0.16278985 0.98200005
-0.093579151 0.16278985 0.98200005
-0.09675277 0.16295561 0.98300004
-0.10301411 0.16312139 0.98400003
-0.1062034 0.16328716 0.98500007
-0.10939894 0.16345294 0.98600006
-0.071245663 0.10623284 0.97100008
-0.083408661 0.10623284 0.97100008
-0.08949016 0.10623284 0.97100008
-0.092530914 0.10623284 0.97100008
-0.10165316 0.10319209 0.97100008
-0.061029777 0.17569396 1.003
-0.072933249 0.17723022 0.99400002
-0.096063793 0.14040036 0.97600007
-0.10695814 0.17687362 0.99200004
-0.069258548 0.16036521 0.98600006
-0.072272889 0.16020258 0.98500007
-0.075280979 0.16003993 0.98400003
-0.081278361 0.15971464 0.98200005
-0.093483858 0.15955201 0.98100007
-0.099729545 0.15971464 0.98200005
-0.10280474 0.15971464 0.98200005
-0.1156916 0.16052786 0.98700005
-0.11878246 0.16052786 0.98700005
-0.12774958 0.16410598 1.0090001
-0.086182319 0.087716497 0.96800005
-0.058119684 0.17954814 1.0070001
-0.079318076 0.19006298 0.99600005
-0.11095227 0.19082628 1
-0.10044044 0.17633873 0.98900002
-0.078282796 0.15987729 0.98300004
-0.075127974 0.15663944 0.98200005
-0.0811956 0.15647994 0.98100007
-0.084181756 0.15632042 0.98000002
-0.093388557 0.15632042 0.98000002
-0.10270005 0.15647994 0.98100007
-0.10587994 0.15663944 0.98200005
-0.10895513 0.15663944 0.98200005
-0.11533995 0.15695846 0.98400003
-0.11854177 0.15711798 0.98500007
-0.12162635 0.15711798 0.98500007
-0.13155805 0.16174379 1.0140001
-0.11374158 0.1808873 0.99700004
-0.11698097 0.18106873 0.99800003
-0.12724313 0.17289707 1.005
-0.072493009 0.16687848 0.98800004
-0.075510494 0.16670957 0.98700005
-0.11818072 0.15356426 0.98200005
-0.12369806 0.15278237 0.97700006
-0.12662786 0.15262599 0.97600007
-0.12968427 0.15262599 0.97600007
-0.10840037 0.14360374 0.97700006
-0.065835267 0.15033582 0.98100007
-0.071906023 0.15018256 0.98000002
-0.074974954 0.15018256 0.98000002
-0.077964254 0.15002932 0.97900003
-0.081030056 0.15002932 0.97900003
-0.08400996 0.14987607 0.97800004
-0.087072633 0.14987607 0.97800004
-0.090135299 0.14987607 0.97800004
-0.10238598 0.14987607 0.97800004
-0.12662786 0.14956957 0.97600007
-0.083666354 0.12486193 0.97400004
-0.052172877 0.18079624 1.0140001
-0.084697157 0.16962838 0.98600006
-0.087695852 0.16945635 0.98500007
-0.090780444 0.16945635 0.98500007
-0.097048052 0.16962838 0.98600006
-0.10332818 0.16980042 0.98700005
-0.067311689 0.15998916 1.003
-0.071906023 0.14711362 0.98000002
-0.074898452 0.14696351 0.97900003
-0.083924055 0.14666328 0.97700006
-0.093102679 0.14666328 0.97700006
-0.099221759 0.14666328 0.97700006
-0.11475387 0.14696351 0.97900003
-0.12357146 0.14651316 0.97600007
-0.13274069 0.14651316 0.97600007
-0.10566429 0.1532515 0.98000002
-0.069539517 0.16721629 0.99000007
-0.068766847 0.1438977 0.97900003
-0.077804983 0.14360374 0.97700006
-0.080864526 0.14360374 0.97700006
-0.083924055 0.14360374 0.97700006
-0.086983599 0.14360374 0.97700006
-0.089950971 0.14345676 0.97600007
-0.093007386 0.14345676 0.97600007
-0.096063793 0.14345676 0.97600007
-0.0991202 0.14345676 0.97600007
-0.10228129 0.14360374 0.97700006
-0.10534083 0.14360374 0.97700006
-0.11157399 0.14375071 0.97800004
-0.11769933 0.14375071 0.97800004
-0.12088548 0.1438977 0.97900003
-0.12357146 0.14345676 0.97600007
-0.12968427 0.14345676 0.97600007
-0.13274069 0.14345676 0.97600007
-0.13579708 0.14345676 0.97600007
-0.13885349 0.14345676 0.97600007
-0.1420553 0.14360374 0.97700006
-0.062123418 0.10319209 0.97100008
-0.065164164 0.10319209 0.97100008
-0.068204917 0.10319209 0.97100008
-0.071245663 0.10319209 0.97100008
-0.077327162 0.10319209 0.97100008
-0.083408661 0.10319209 0.97100008
-0.08636038 0.10308582 0.97000003
-0.10480173 0.10329837 0.97200006
-0.066976137 0.17794342 0.99800003
-0.1101756 0.17705193 0.99300003
-0.12749636 0.16693419 1.0070001
-0.071759276 0.14068806 0.97800004
-0.077804983 0.14054421 0.97700006
-0.080864526 0.14054421 0.97700006
-0.083838157 0.14040036 0.97600007
-0.086894572 0.14040036 0.97600007
-0.089950971 0.14040036 0.97600007
-0.0991202 0.14040036 0.97600007
-0.10523301 0.14040036 0.97600007
-0.13274069 0.14040036 0.97600007
-0.072419636 0.16361871 0.98700005
-0.13155805 0.1649192 1.0140001
-0.06911806 0.15695846 0.98400003
-0.078123525 0.15647994 0.98100007
-0.074745446 0.13748467 0.97700006
-0.077725343 0.13734394 0.97600007
-0.080781758 0.13734394 0.97600007
-0.083838157 0.13734394 0.97600007
-0.086805537 0.13720322 0.97500002
-0.089858808 0.13720322 0.97500002
-0.095965356 0.13720322 0.97500002
-0.099018641 0.13720322 0.97500002
-0.10207191 0.13720322 0.97500002
-0.10828942 0.13734394 0.97600007
-0.11440223 0.13734394 0.97600007
-0.12357146 0.13734394 0.97600007
-0.071832649 0.1438977 0.97900003
-0.074821949 0.14375071 0.97800004
-0.076046027 0.180343 0.99400002
-0.068626367 0.13442512 0.97700006
-0.071685903 0.13442512 0.97700006
-0.074668944 0.13428754 0.97600007
-0.08375226 0.13414994 0.97500002
-0.092912085 0.13414994 0.97500002
-0.099018641 0.13414994 0.97500002
-0.10207191 0.13414994 0.97500002
-0.10512519 0.13414994 0.97500002
-0.10817846 0.13414994 0.97500002
-0.11134583 0.13428754 0.97600007
-0.11440223 0.13428754 0.97600007
-0.11745864 0.13428754 0.97600007
-0.12063853 0.13442512 0.97700006
-0.12357146 0.13428754 0.97600007
-0.12662786 0.13428754 0.97600007
-0.12968427 0.13428754 0.97600007
-0.13274069 0.13428754 0.97600007
-0.13593622 0.13442512 0.97700006
-0.13899575 0.13442512 0.97700006
-0.1420553 0.13442512 0.97700006
-0.095768511 0.12473373 0.97300005
-0.098917082 0.12486193 0.97400004
-0.12736975 0.16991878 1.006
-0.12199679 0.1606905 0.98800004
-0.071539156 0.13109666 0.97500002
-0.074592434 0.13109666 0.97500002
-0.077645704 0.13109666 0.97500002
-0.080698982 0.13109666 0.97500002
-0.08375226 0.13109666 0.97500002
-0.089766644 0.13096221 0.97400004
-0.10207191 0.13109666 0.97500002
-0.10512519 0.13109666 0.97500002
-0.10817846 0.13109666 0.97500002
-0.11123174 0.13109666 0.97500002
-0.11440223 0.13123113 0.97600007
-0.11745864 0.13123113 0.97600007
-0.12051505 0.13123113 0.97600007
-0.12357146 0.13123113 0.97600007
-0.12662786 0.13123113 0.97600007
-0.12968427 0.13123113 0.97600007
-0.13287669 0.13136558 0.97700006
-0.057946537 0.17272505 1.0040001
-0.13593622 0.13136558 0.97700006
-0.060968935 0.17238097 1.0020001
-0.13899575 0.13136558 0.97700006
-0.14511484 0.13136558 0.97700006
-0.077884614 0.14681339 0.97800004
-0.080947287 0.14681339 0.97800004
-0.10544866 0.14681339 0.97800004
-0.10851132 0.14681339 0.97800004
-0.11168808 0.14696351 0.97900003
-0.11781968 0.14696351 0.97900003
-0.12662786 0.14651316 0.97600007
-0.12968427 0.14651316 0.97600007
-0.13579708 0.14651316 0.97600007
-0.13885349 0.14651316 0.97600007
-0.082106046 0.18308665 0.99200004
-0.1314283 0.16792883 1.013
-0.062123418 0.10623284 0.97100008
-0.065164164 0.10623284 0.97100008
-0.074286416 0.10623284 0.97100008
-0.080367915 0.10623284 0.97100008
-0.071539156 0.1280434 0.97500002
-0.074592434 0.1280434 0.97500002
-0.086716503 0.12791207 0.97400004
-0.095866933 0.12791207 0.97400004
-0.11123174 0.1280434 0.97500002
-0.12051505 0.12817472 0.97600007
-0.12357146 0.12817472 0.97600007
-0.12662786 0.12817472 0.97600007
-0.12981714 0.12830605 0.97700006
-0.13913803 0.12843738 0.97800004
-0.055293698 0.18379021 1.013
-0.11428501 0.11888357 0.97500002
-0.11806038 0.15033582 0.98100007
-0.12113244 0.15033582 0.98100007
-0.071759276 0.13762538 0.97800004
-0.11271483 0.16378449 0.98800004
-0.11592603 0.16395025 0.98900002
-0.1420553 0.13748467 0.97700006
-0.0927215 0.12168671 0.97300005
-0.10186253 0.12168671 0.97300005
-0.11123174 0.12193684 0.97500002
-0.11428501 0.12193684 0.97500002
-0.11745864 0.12206191 0.97600007
-0.12675761 0.12218697 0.97700006
-0.074515931 0.12486193 0.97400004
-0.0927215 0.12473373 0.97300005
-0.10196722 0.12486193 0.97400004
-0.11745864 0.12511832 0.97600007
-0.12675761 0.12524651 0.97700006
-0.13287669 0.12524651 0.97700006
-0.13607535 0.1253747 0.97800004
-0.13913803 0.1253747 0.97800004
-0.14220069 0.1253747 0.97800004
-0.14541191 0.1255029 0.97900003
-0.061151471 0.17919153 1.005
-0.075357489 0.16328716 0.98500007
-0.12051505 0.11594909 0.97600007
-0.096359067 0.15309511 0.97900003
-0.099424869 0.15309511 0.97900003
-0.068275161 0.12156165 0.97200006
-0.071319036 0.12156165 0.97200006
-0.074439421 0.12168671 0.97300005
-0.077486433 0.12168671 0.97300005
-0.080533452 0.12168671 0.97300005
-0.083580457 0.12168671 0.97300005
-0.086627476 0.12168671 0.97300005
-0.089674488 0.12168671 0.97300005
-0.095768511 0.12168671 0.97300005
-0.098815523 0.12168671 0.97300005
-0.10501737 0.12181178 0.97400004
-0.10806751 0.12181178 0.97400004
-0.12051505 0.12206191 0.97600007
-0.12981714 0.12218697 0.97700006
-0.07300663 0.18052444 0.99500006
-0.066774815 0.17117672 0.99500006
-0.093769737 0.16620286 0.98400003
-0.096851192 0.16620286 0.98400003
-0.10641904 0.16670957 0.98700005
-0.10962084 0.16687848 0.98800004
-0.112943 0.16721629 0.99000007
-0.11938419 0.1675541 0.99200004
-0.071319036 0.11851777 0.97200006
-0.080533452 0.11863971 0.97300005
-0.10186253 0.11863971 0.97300005
-0.11733829 0.11888357 0.97500002
-0.12675761 0.11912743 0.97700006
-0.12995002 0.11924937 0.97800004
-0.064170733 0.18197589 1.003
-0.1420553 0.14054421 0.97700006
-0.11986558 0.17758684 0.99600005
-0.13287669 0.12830605 0.97700006
-0.10555647 0.15002932 0.97900003
-0.10862227 0.15002932 0.97900003
-0.059082668 0.10623284 0.97100008
-0.078362435 0.16312139 0.98400003
-0.087250695 0.15632042 0.98000002
-0.090319619 0.15632042 0.98000002
-0.096457489 0.15632042 0.98000002
-0.099526428 0.15632042 0.98000002
-0.11214441 0.15679896 0.98300004
-0.065231271 0.11547389 0.97200006
-0.077406801 0.11547389 0.97200006
-0.089582324 0.11547389 0.97200006
-0.10186253 0.11559269 0.97300005
-0.10806751 0.11571149 0.97400004
-0.11111766 0.11571149 0.97400004
-0.11428501 0.11583029 0.97500002
-0.12369806 0.11606789 0.97700006
-0.080450684 0.11243001 0.97200006
-0.092626207 0.11243001 0.97200006
-0.098713972 0.11243001 0.97200006
-0.10175785 0.11243001 0.97200006
-0.1141678 0.11266135 0.97400004
-0.080367915 0.10319209 0.97100008
-0.068204917 0.10927359 0.97100008
-0.068275161 0.11243001 0.97200006
-0.12968427 0.13734394 0.97600007
-0.074362919 0.11243001 0.97200006
-0.077406801 0.11243001 0.97200006
-0.13579708 0.13734394 0.97600007
-0.092626207 0.11851777 0.97200006
-0.071465783 0.12486193 0.97400004
-0.096555918 0.15955201 0.98100007
-0.061273169 0.18585511 1.0070001
-0.08949016 0.10927359 0.97100008
-0.092530914 0.10927359 0.97100008
-0.062123418 0.10927359 0.97100008
-0.065164164 0.10927359 0.97100008
-0.074362919 0.10938612 0.97200006
-0.077327162 0.10927359 0.97100008
-0.086449414 0.10927359 0.97100008
-0.09557166 0.10927359 0.97100008
-0.10175785 0.10938612 0.97200006
-0.10480173 0.10938612 0.97200006
-0.11111766 0.1096112 0.97400004
-0.1141678 0.1096112 0.97400004
-0.11733829 0.10972373 0.97500002
-0.10175785 0.10634225 0.97200006
-0.099831097 0.16295561 0.98300004
-0.064042777 0.17847833 1.001
-0.065164164 0.11231434 0.97100008
-0.071245663 0.11231434 0.97100008
-0.077327162 0.10623284 0.97100008
-0.10784561 0.10634225 0.97200006
-0.1141678 0.10656106 0.97400004
-0.12051505 0.10677987 0.97600007
-0.1330127 0.11924937 0.97800004
-0.1423461 0.11937129 0.97900003
-0.075663507 0.17014448 0.98900002
-0.078680985 0.16997245 0.98800004
-0.10984275 0.17031653 0.99000007
-0.11305708 0.17048857 0.99100006
-0.098815523 0.11863971 0.97300005
-0.068204917 0.10623284 0.97100008
-0.066372149 0.16085313 0.98900002
-0.10480173 0.10634225 0.97200006
-0.090964764 0.17289127 0.98700005
-0.12675761 0.10994881 0.97700006
-0.13579708 0.14956957 0.97600007
-0.12662786 0.14345676 0.97600007
-0.089397997 0.10308582 0.97000003
-0.098612413 0.10319209 0.97100008
-0.10784561 0.10329837 0.97200006
-0.11100358 0.10340464 0.97300005
-0.11721794 0.10351091 0.97400004
-0.12026808 0.10351091 0.97400004
-0.12331823 0.10351091 0.97400004
-0.087339729 0.15955201 0.98100007
-0.091056928 0.17616042 0.98800004
-0.094150916 0.17616042 0.98800004
-0.097343326 0.17633873 0.98900002
-0.10501737 0.12486193 0.97400004
-0.10806751 0.12486193 0.97400004
-0.08796294 0.17616042 0.98800004
-0.087873913 0.17289127 0.98700005
-0.098032311 0.19318202 0.99600005
-0.10749725 0.18713164 0.99700004
-0.085212551 0.18308665 0.99200004
-0.11088949 0.10025449 0.97200006
-0.11393337 0.10025449 0.97200006
-0.086716503 0.13096221 0.97400004
-0.092816792 0.13096221 0.97400004
-0.095866933 0.13096221 0.97400004
-0.098917082 0.13096221 0.97400004
-0.12688734 0.10699868 0.97800004
-0.1330127 0.12231203 0.97800004
-0.068275161 0.11547389 0.97200006
-0.1423461 0.12243709 0.97900003
-0.071319036 0.11547389 0.97200006
-0.074362919 0.11547389 0.97200006
-0.083494559 0.11547389 0.97200006
-0.068204917 0.10015135 0.97100008
-0.077327162 0.10015135 0.97100008
-0.071245663 0.10015135 0.97100008
-0.09557166 0.10623284 0.97100008
-0.071245663 0.097110592 0.97100008
-0.074209906 0.097010575 0.97000003
-0.077247523 0.097010575 0.97000003
-0.080285147 0.097010575 0.97000003
-0.12995002 0.11312402 0.97800004
-0.08636038 0.097010575 0.97000003
-0.13621448 0.11323969 0.97900003
-0.092435613 0.097010575 0.97000003
-0.09547323 0.097010575 0.97000003
-0.098612413 0.097110592 0.97100008
-0.10165316 0.097110592 0.97100008
-0.10469391 0.097110592 0.97100008
-0.10773466 0.097110592 0.97100008
-0.069960967 0.17758684 0.99600005
-0.14220069 0.12843738 0.97800004
-0.12995002 0.11618669 0.97800004
-0.13621448 0.11630549 0.97900003
-0.13928029 0.11630549 0.97900003
-0.11463666 0.14375071 0.97800004
-0.12357146 0.12206191 0.97600007
-0.071245663 0.094069846 0.97100008
-0.083322756 0.093972966 0.97000003
-0.1331487 0.11017388 0.97900003
-0.089305833 0.093876086 0.96900004
-0.09547323 0.093972966 0.97000003
-0.10469391 0.094069846 0.97100008
-0.10795656 0.11254568 0.97300005
-0.10917703 0.16003993 0.98400003
-0.11237258 0.16020258 0.98500007
-0.078043886 0.1532515 0.98000002
-0.084095858 0.15309511 0.97900003
-0.08716166 0.15309511 0.97900003
-0.11191625 0.15340789 0.98100007
-0.11510552 0.15356426 0.98200005
-0.1213794 0.15372063 0.98300004
-0.074286416 0.10319209 0.97100008
-0.092530914 0.10319209 0.97100008
-0.09557166 0.10319209 0.97100008
-0.084353559 0.15971464 0.98200005
-0.13607535 0.12231203 0.97800004
-0.074745446 0.14054421 0.97700006
-0.058235113 0.18306449 1.0090001
-0.077247523 0.090935342 0.97000003
-0.080285147 0.090935342 0.97000003
-0.083322756 0.090935342 0.97000003
-0.12995002 0.10699868 0.97800004
-0.086271346 0.090841599 0.96900004
-0.089305833 0.090841599 0.96900004
-0.092435613 0.090935342 0.97000003
-0.09547323 0.090935342 0.97000003
-0.098510854 0.090935342 0.97000003
-0.10154846 0.090935342 0.97000003
-0.1231081 0.17776513 0.99700004
-0.081526667 0.16637176 0.98500007
-0.1330127 0.11618669 0.97800004
-0.096260637 0.14987607 0.97800004
-0.084439456 0.16295561 0.98300004
-0.090503953 0.16278985 0.98200005
-0.086449414 0.11231434 0.97100008
-0.08949016 0.11231434 0.97100008
-0.11733829 0.11277702 0.97500002
-0.12675761 0.11300836 0.97700006
-0.086983599 0.14666328 0.97700006
-0.089213669 0.087716497 0.96800005
-0.13899575 0.13748467 0.97700006
-0.09547323 0.1000482 0.97000003
-0.083150961 0.087716497 0.96800005
-0.12236723 0.16428182 0.99100006
-0.095768511 0.11863971 0.97300005
-0.10490955 0.11863971 0.97300005
-0.098713972 0.10938612 0.97200006
-0.071245663 0.10927359 0.97100008
-0.068907335 0.15033582 0.98100007
-0.090043135 0.14666328 0.97700006
-0.089766644 0.12791207 0.97400004
-0.092816792 0.12791207 0.97400004
-0.098917082 0.12791207 0.97400004
-0.10196722 0.12791207 0.97400004
-0.10817846 0.1280434 0.97500002
-0.092626207 0.11547389 0.97200006
-0.095670082 0.11547389 0.97200006
-0.098713972 0.11547389 0.97200006
-0.057831105 0.16924316 1.0020001
-0.13593622 0.12830605 0.97700006
-0.11639489 0.17083263 0.99300003
-0.070241928 0.18769471 1
-0.083322756 0.097010575 0.97000003
-0.12369806 0.10994881 0.97700006
-0.0976386 0.18308665 0.99200004
-0.062187396 0.11547389 0.97200006
-0.068204917 0.097110592 0.97100008
-0.086805537 0.13414994 0.97500002
-0.089858808 0.13414994 0.97500002
-0.072639756 0.17031653 0.99000007
-0.10598776 0.15987729 0.98300004
-0.09041179 0.15955201 0.98100007
-0.083494559 0.11851777 0.97200006
-0.086538441 0.11851777 0.97200006
-0.080285147 0.1000482 0.97000003
-0.083322756 0.1000482 0.97000003
-0.11100358 0.10645165 0.97300005
-0.10795656 0.10949866 0.97300005
-0.093007386 0.14040036 0.97600007
-0.13274069 0.14956957 0.97600007
-0.10784561 0.10025449 0.97200006
-0.12273765 0.17100467 0.99400002
-0.077566072 0.12486193 0.97400004
-0.080616213 0.12486193 0.97400004
-0.12369806 0.11300836 0.97700006
-0.098612413 0.10015135 0.97100008
-0.062123418 0.10015135 0.97100008
-0.092912085 0.13720322 0.97500002
-0.065164164 0.097110592 0.97100008
-0.10374694 0.17669533 0.99100006
-0.11451945 0.14054421 0.97700006
-0.098612413 0.10623284 0.97100008
-0.06121232 0.1825202 1.006
-0.073226742 0.18731932 0.99800003
-0.080367915 0.10927359 0.97100008
-0.083408661 0.10927359 0.97100008
-0.10706596 0.18016158 0.99300003
-0.094817981 0.19298805 0.99500006
-0.078521714 0.16654067 0.98600006
-0.084525354 0.16620286 0.98400003
-0.090688273 0.16620286 0.98400003
-0.11123174 0.12499011 0.97500002
-0.11428501 0.12499011 0.97500002
-0.12051505 0.12511832 0.97600007
-0.1191435 0.16411604 0.99000007
-0.089397997 0.097010575 0.97000003
-0.10385163 0.17998014 0.99200004
-0.068204917 0.094069846 0.97100008
-0.074209906 0.093972966 0.97000003
-0.077247523 0.093972966 0.97000003
-0.12995002 0.11006135 0.97800004
-0.086271346 0.093876086 0.96900004
-0.11721794 0.10656106 0.97400004
-0.11111766 0.11266135 0.97400004
-0.14220069 0.13150004 0.97800004
-0.11487109 0.15018256 0.98000002
-0.10490955 0.11254568 0.97300005
-0.077566072 0.12791207 0.97400004
-0.080616213 0.12791207 0.97400004
-0.089397997 0.1000482 0.97000003
-0.10806751 0.11876164 0.97400004
-0.1331487 0.11323969 0.97900003
-0.11950454 0.17083263 0.99300003
-0.11385567 0.18419403 0.99800003
-0.12323157 0.18419403 0.99800003
-0.13621448 0.11937129 0.97900003
-0.092435613 0.1000482 0.97000003
-0.086538441 0.11547389 0.97200006
-0.12051505 0.10983627 0.97600007
-0.063786864 0.17152078 0.99700004
-0.12076201 0.14068806 0.97800004
-0.090227462 0.15309511 0.97900003
-0.11686375 0.17776513 0.99700004
-0.13579708 0.14040036 0.97600007
-0.068275161 0.11851777 0.97200006
-0.077486433 0.11863971 0.97300005
-0.080698982 0.13414994 0.97500002
-0.13899575 0.14054421 0.97700006
-0.10165316 0.10015135 0.97100008
-0.12369806 0.11912743 0.97700006
-0.096162215 0.14666328 0.97700006
-0.086449414 0.10623284 0.97100008
-0.12968427 0.14040036 0.97600007
-0.067177474 0.18474771 1.001
-0.13928029 0.12243709 0.97900003
-0.069679998 0.1706606 0.99200004
-0.12675761 0.11606789 0.97700006
-0.074439421 0.11863971 0.97300005
-0.062123418 0.11231434 0.97100008
-0.072126143 0.15679896 0.98300004
-0.12100895 0.14711362 0.98000002
-0.11757899 0.13748467 0.97700006
-0.093197972 0.14987607 0.97800004
-0.091241255 0.17961729 0.99000007
-0.10064356 0.17979872 0.99100006
-0.11974524 0.17429262 0.99500006
-0.098612413 0.094069846 0.97100008
-0.12662786 0.13734394 0.97600007
-0.13928029 0.11937129 0.97900003
-0.12357146 0.14956957 0.97600007
-0.12968427 0.14956957 0.97600007
-0.08495485 0.17633873 0.98900002
-0.077725343 0.13428754 0.97600007
-0.12063853 0.13748467 0.97700006
-0.068696611 0.13762538 0.97800004
-0.080450684 0.11547389 0.97200006
-0.10884418 0.15340789 0.98100007
-0.12357146 0.14040036 0.97600007
-0.083494559 0.11243001 0.97200006
-0.089582324 0.11851777 0.97200006
-0.095670082 0.11243001 0.97200006
-0.065164164 0.10015135 0.97100008
-0.074286416 0.10015135 0.97100008
-0.10652686 0.16997245 0.98800004
-0.09932331 0.14987607 0.97800004
-0.12981714 0.12524651 0.97700006
-0.13274069 0.13734394 0.97600007
-0.07117229 0.090935342 0.97000003
-0.074209906 0.090935342 0.97000003
-0.089674488 0.12473373 0.97300005
-0.12357146 0.12511832 0.97600007
-0.083666354 0.12791207 0.97400004
-0.069820479 0.17411745 0.99400002
-0.12051505 0.1190055 0.97600007
-0.055184532 0.17709531 1.011
-0.06359493 0.16477913 0.99400002
-0.080285147 0.093972966 0.97000003
-0.11757899 0.14054421 0.97700006
-0.13621448 0.11017388 0.97900003
-0.092435613 0.093972966 0.97000003
-0.068696611 0.14068806 0.97800004
-0.11733829 0.11583029 0.97500002
-0.065231271 0.11851777 0.97200006
-0.12369806 0.10688928 0.97700006
-0.12051505 0.11289269 0.97600007
-0.11405058 0.10340464 0.97300005
-0.10523301 0.13734394 0.97600007
-0.094341509 0.17961729 0.99000007
-0.11134583 0.13734394 0.97600007
-0.10490955 0.11559269 0.97300005
-0.12662786 0.14040036 0.97600007
-0.095965356 0.13414994 0.97500002
-0.052121423 0.17744565 1.013
-0.10165316 0.094069846 0.97100008
-0.068837091 0.14711362 0.98000002
-0.11180216 0.15018256 0.98000002
-0.086627476 0.12473373 0.97300005
-0.11111766 0.11876164 0.97400004
