# .PCD v0.7 - Point Cloud Data file format
VERSION 0.7
FIELDS x y z rgb
SIZE 4 4 4 4
TYPE F F F U
COUNT 1 1 1 1
WIDTH 1212
HEIGHT 1
VIEWPOINT 0 0 0 1 0 0 0
POINTS 1212
DATA ascii
1.0201218 -0.19201677 3.8980002 4273474
1.0404665 -0.19201677 3.8980002 5592150
1.0676148 -0.19324826 3.9230001 6710888
1.0880901 -0.19324826 3.9230001 7103837
1.1085652 -0.19324826 3.9230001 7366496
1.1290404 -0.19324826 3.9230001 6774622
1.1421902 -0.19201677 3.8980002 7695463
1.1553771 -0.19083451 3.8740001 7169117
1.1755967 -0.19083451 3.8740001 6313818
1.2032244 -0.19201677 3.8980002 2562594
1.2160356 -0.19083451 3.8740001 3090214
1.236255 -0.19083451 3.8740001 2893104
1.2483662 -0.189603 3.8490002 1512484
1.2605458 -0.18842076 3.8250003 2633791
1.2805096 -0.18842076 3.8250003 1711919
1.3086331 -0.189603 3.8490002 2698303
1.3287221 -0.189603 3.8490002 1644327
1.3575718 -0.19083451 3.8740001 1972785
1.3777913 -0.19083451 3.8740001 1974578
1.3889891 -0.189603 3.8490002 2106666
1.3918719 -0.18728778 3.8020003 2630443
1.394264 -0.18497252 3.7550001 2365225
1.3882585 -0.18162283 3.6870003 2693676
1.390705 -0.17945537 3.6430001 3355733
1.4015926 -0.17842092 3.6220002 3486779
1.4118687 -0.17733718 3.6000001 3683634
1.4119802 -0.17502195 3.5530002 4276292
1.4063667 -0.17206633 3.4930003 4866372
1.394825 -0.16847032 3.4200001 3684404
1.3969786 -0.16659844 3.3820002 3685950
1.381586 -0.16270687 3.3030002 2568752
1.3691801 -0.15925863 3.233 1317404
1.3551861 -0.1557119 3.1610003 1382945
1.3491193 -0.15315036 3.1090002 2502459
1.3328483 -0.14950509 3.0350001 5462640
1.3469113 -0.14930806 3.0310001 3423813
1.3465453 -0.14753468 2.9950001 4868702
1.3630867 -0.14763321 2.9970002 3027016
1.3607875 -0.14571205 2.9580002 3553610
1.3580811 -0.1437909 2.9190001 3093059
1.3714343 -0.14359386 2.9150002 3685198
1.3847457 -0.14339682 2.9110003 657950
1.4071527 -0.14413571 2.9260001 3088938
1.428744 -0.14477611 2.9390001 3219241
1.448997 -0.14526871 2.9490001 3482140
1.4772995 -0.14654948 2.9750001 4203274
1.4903178 -0.14630316 2.97 4726528
1.5164664 -0.14733765 2.9910002 5389056
-0 -0 0 4275522
-0 -0 0 4275522
-0 -0 0 4275522
-0 -0 0 4275522
-0 -0 0 4275522
-0 -0 0 4275522
-0 -0 0 4275522
-0 -0 0 4275522
-0 -0 0 4275522
-1.7508283 -0.14648055 3.3260002 4998478
-1.7491045 -0.14780179 3.3560002 5327447
-1.7300407 -0.14766966 3.3530002 5983828
-1.6972179 -0.14634843 3.3230002 6444127
-1.6773466 -0.14612822 3.3180001 5653841
-1.6375153 -0.14414637 3.2730002 5392967
-1.5783498 -0.14040288 3.1880002 5389125
-1.5141932 -0.1361309 3.0910001 4405060
-1.4539571 -0.13212317 3.0000002 1709080
-1.3913149 -0.12780714 2.9020002 724763
-1.3756942 -0.12776309 2.901 593427
-1.4365302 -0.13489775 3.0630002 1445910
-1.5545747 -0.14762563 3.3520002 3746096
-1.7324245 -0.1663871 3.7780001 4668232
-1.9960415 -0.19391277 4.4030004 4276796
-2.0936048 -0.20575981 4.6720004 3947824
-2.0692203 -0.20575981 4.6720004 4735291
-1.9844362 -0.19968215 4.5340004 3748396
-1.9041197 -0.19391277 4.4030004 3419949
-1.8285886 -0.18849571 4.2800002 3946806
-1.7691123 -0.18462011 4.1920004 4670527
-1.7122219 -0.18092066 4.1080003 4011314
-1.6792568 -0.17968751 4.0800004 4273975
-1.6693403 -0.18092066 4.1080003 4077630
-1.6591314 -0.18215381 4.1360002 3881537
-1.6597164 -0.18462011 4.1920004 3683381
-1.6491677 -0.18589729 4.2210002 3354166
-1.638316 -0.18717447 4.25 3222069
-1.616134 -0.18717447 4.25 3023659
-1.6052036 -0.18849571 4.2800002 3352372
-1.5828652 -0.18849571 4.2800002 3945270
-1.5495884 -0.18717447 4.25 3222822
-1.5169842 -0.18589729 4.2210002 3158834
-1.5158497 -0.18849571 4.2800002 3421739
-1.5147971 -0.19118221 4.3410001 3357738
-1.5134518 -0.19391277 4.4030004 2634796
-1.5124747 -0.19677544 4.4680004 2895664
-1.4891549 -0.19677544 4.4680004 2698536
-1.4550087 -0.19532208 4.4350004 3156777
-1.4115214 -0.19254749 4.3720002 3551535
-1.3594803 -0.18849571 4.2800002 3157542
-1.3277692 -0.18717447 4.25 2565681
-1.2791684 -0.18338694 4.164 2895915
-1.2489799 -0.18215381 4.1360002 1185046
-1.227393 -0.18215381 4.1360002 2435111
-1.197643 -0.18092066 4.1080003 3686461
-1.1681854 -0.17968751 4.0800004 1974813
-1.1319923 -0.17735334 4.0270004 1382945
-1.0963526 -0.17501915 3.9740002 527636
-1.0618074 -0.17277305 3.9230001 264466
-1.0216894 -0.16951402 3.8490002 1449499
-0.97115427 -0.16436121 3.7320001 1646367
-0.92362547 -0.15951671 3.6220002 1777703
-0.87100035 -0.15357116 3.4870002 462356
-0.82712132 -0.14894685 3.3820002 1513759
-0.78649247 -0.14471892 3.2860003 1579552
-0.75880617 -0.14273706 3.2410002 4408903
-0.73708349 -0.14181221 3.2200003 4606531
-0.71848786 -0.14145987 3.2120001 3360326
-0.69844657 -0.14079925 3.1970003 4083020
-0.68154722 -0.14075521 3.1960001 4278588
-0.66507453 -0.14079925 3.1970003 4737842
-0.64859128 -0.14084329 3.1980002 4475965
-0.63150483 -0.14075521 3.1960001 5201488
-0.61732489 -0.14132774 3.2090001 3948855
-0.60581654 -0.1425609 3.2370002 5329233
-0.59565336 -0.14419042 3.2740002 5530715
-0.58952177 -0.14692096 3.3360002 1251107
-0.59131783 -0.15185356 3.4480002 1184276
-0.57847631 -0.15321882 3.4790001 1382427
-0.56821024 -0.15537684 3.5280001 789268
-0.56101704 -0.15854779 3.6000001 1119003
-0.54870421 -0.16044156 3.6430001 921876
-0.53608805 -0.16237937 3.6870003 988185
-0.52315265 -0.16436121 3.7320001 1447198
-0.50988251 -0.1663871 3.7780001 2303525
-0.49327791 -0.1674441 3.8020003 2106150
-0.47629824 -0.16845703 3.8250003 2238767
-0.45633453 -0.16845703 3.8250003 2567734
-0.43637082 -0.16845703 3.8250003 1185827
-0.41390321 -0.1674441 3.8020003 856081
-0.391572 -0.1663871 3.7780001 856081
-0.36506218 -0.16334827 3.7090001 987415
-0.33955225 -0.16044156 3.6430001 1909287
-0.31490725 -0.15762293 3.5790002 1251357
-0.28695741 -0.15269034 3.4670002 1316384
-0.26475212 -0.15035616 3.4140003 1447966
-0.24382332 -0.14846238 3.3710001 3420729
-0.22247094 -0.14599609 3.3150001 2963260
-0.20294099 -0.14441061 3.279 2502707
-0.18531694 -0.14401425 3.2700002 660253
-0.16742668 -0.14330959 3.2540002 330007
-0.15039693 -0.14326556 3.2530003 1251107
-0.13358268 -0.14344172 3.2570002 1316130
-0.11686985 -0.14379404 3.2650001 1251107
-0.099614896 -0.14348575 3.2580001 1514013
-0.082483724 -0.14326556 3.2530003 2238765
-0.065726928 -0.14375 3.2640002 1448736
-0.048765801 -0.14397021 3.2690001 1317154
-0.031800974 -0.14441061 3.279 1645349
-0.014955722 -0.14705308 3.3390002 1251109
0.0025069637 -0.14916705 3.3870001 2039083
0.020750793 -0.15335095 3.4820001 4541261
0.039460886 -0.15546492 3.5300002 4279881
0.058688432 -0.15762293 3.5790002 4674639
0.078297757 -0.15951671 3.6220002 4407122
0.098355941 -0.16141047 3.6650002 3093059
0.11818981 -0.16237937 3.6870003 1908787
0.13825332 -0.16334827 3.7090001 3026729
0.15858899 -0.16436121 3.7320001 2829099
0.17806731 -0.16436121 3.7320001 2895412
0.19754565 -0.16436121 3.7320001 2501939
0.21568647 -0.16334827 3.7090001 2831422
0.23504476 -0.16334827 3.7090001 1649989
0.25440305 -0.16334827 3.7090001 1321026
0.27545896 -0.16436121 3.7320001 3094594
0.29857266 -0.1663871 3.7780001 4145229
0.32225075 -0.16845703 3.8250003 2764600
0.34659842 -0.17061505 3.8740001 3419696
0.36909038 -0.17167203 3.8980002 4407874
0.39193276 -0.17277305 3.9230001 4209212
0.41514122 -0.17391813 3.9490001 3224355
0.44137973 -0.17616421 4 3619118
0.46225682 -0.17616421 4 4143934
0.48639512 -0.17735334 4.0270004 5656393
0.50741315 -0.17735334 4.0270004 7103587
0.52843118 -0.17735334 4.0270004 6248530
0.54944921 -0.17735334 4.0270004 7565671
0.57046717 -0.17735334 4.0270004 6578778
0.58751941 -0.17616421 4 4079162
0.61250329 -0.17735334 4.0270004 3156528
0.63352126 -0.17735334 4.0270004 2169631
0.6587652 -0.17849839 4.053 1972252
0.67991889 -0.17849839 4.053 2434594
0.69657534 -0.17735334 4.0270004 2039335
0.71759331 -0.17735334 4.0270004 2433838
0.73365909 -0.17616421 4 2500138
0.74963176 -0.17501915 3.9740002 2895664
0.7604866 -0.17277305 3.9230001 2302248
0.76623046 -0.16951402 3.8490002 2896685
0.77671772 -0.1674441 3.8020003 3620408
0.78671438 -0.16537416 3.7550001 4144953
0.8013739 -0.16436121 3.7320001 3355186
0.81095457 -0.16237937 3.6870003 1777183
0.82524431 -0.16141047 3.6650002 923938
0.84944153 -0.16237937 3.6870003 1121317
0.87386835 -0.16334827 3.7090001 2500138
0.89876556 -0.16436121 3.7320001 2960428
0.93546724 -0.1674441 3.8020003 3354166
0.96712035 -0.16951402 3.8490002 4143421
0.99362135 -0.17061505 3.8740001 2695977
1.0201218 -0.17167203 3.8980002 3154729
1.0404665 -0.17167203 3.8980002 5919832
1.0676148 -0.17277305 3.9230001 7433584
1.081156 -0.17167203 3.8980002 5524292
1.0947187 -0.17061505 3.8740001 5788749
1.1149381 -0.17061505 3.8740001 6709851
1.1351577 -0.17061505 3.8740001 7036767
1.1553771 -0.17061505 3.8740001 7037794
1.1680102 -0.16951402 3.8490002 3617079
1.195816 -0.17061505 3.8740001 2498346
1.2160356 -0.17061505 3.8740001 2696240
1.236255 -0.17061505 3.8740001 2697010
1.2483662 -0.16951402 3.8490002 921626
1.2684551 -0.16951402 3.8490002 1842474
1.2885441 -0.16951402 3.8490002 1909804
1.3086331 -0.16951402 3.8490002 1974832
1.3204371 -0.16845703 3.8250003 1777451
1.3404008 -0.16845703 3.8250003 2039085
1.3603644 -0.16845703 3.8250003 1055265
1.3803282 -0.16845703 3.8250003 1054232
1.3830857 -0.1663871 3.7780001 2170662
1.3771838 -0.16334827 3.7090001 2497576
1.3799748 -0.16141047 3.6650002 1839396
1.3826884 -0.15951671 3.6220002 2433068
1.384953 -0.15762293 3.5790002 2366758
1.4036329 -0.15762293 3.5790002 2893102
1.402045 -0.15537684 3.5280001 4999243
1.3942879 -0.15251417 3.4630001 4802883
1.3768799 -0.14868259 3.3760002 4343863
1.3742602 -0.14652459 3.3270001 4475977
1.3644363 -0.14366192 3.2620001 4278087
1.3458875 -0.13996248 3.1780002 856603
1.3298916 -0.13661535 3.1020002 1252390
1.3287241 -0.13485371 3.062 3096139
1.3310916 -0.13348843 3.0310001 3026262
1.3322468 -0.13203508 2.9980001 4012116
1.3362045 -0.13089001 2.9720001 2302273
1.3380717 -0.12956879 2.9420002 4274784
1.3391658 -0.12820351 2.9110003 4209498
1.3538938 -0.12815946 2.9100001 3947866
1.3676704 -0.12802735 2.9070001 3094092
1.3666693 -0.12652995 2.8730001 3752276
1.388397 -0.12714653 2.8870001 2169910
1.4180491 -0.12846775 2.9170001 2233891
1.4494883 -0.12992111 2.95 2956578
1.4713405 -0.13049364 2.9630001 2298636
1.4878089 -0.13058172 2.9650002 3218957
1.4997351 -0.13027345 2.9580002 2823685
-0 -0 0 4275522
-0 -0 0 4275522
-0 -0 0 4275522
-0 -0 0 4275522
-0 -0 0 4275522
-0 -0 0 4275522
-0 -0 0 4275522
-0 -0 0 4275522
-0 -0 0 4275522
-1.7992576 -0.13269284 3.4180002 5064523
-1.7814181 -0.13269284 3.4180002 5391953
-1.7640946 -0.13273166 3.4190001 5587268
-1.7237769 -0.1310235 3.3750002 5587266
-1.7041396 -0.13086821 3.3710001 5129546
-1.6585283 -0.12869419 3.3150001 4801351
-1.6149864 -0.12663664 3.2620001 6116189
-1.5509336 -0.12290975 3.1660001 5458760
-1.4762511 -0.11825114 3.0460002 2235673
-1.4191219 -0.11491246 2.96 1185566
-1.3984565 -0.11448542 2.9490001 855831
-1.4365302 -0.1189111 3.0630002 985109
-1.5754446 -0.13187757 3.3970001 1970717
-1.7539767 -0.1484933 3.8250003 2894637
-1.9819881 -0.16972882 4.3720002 4735556
-2.1097369 -0.18277292 4.7080002 4471606
-2.0692203 -0.18137535 4.6720004 4471354
-2.0141983 -0.17865781 4.6020002 4668733
-1.9460682 -0.174698 4.5 3354168
-1.8811393 -0.17093229 4.4030004 4538694
-1.8062501 -0.1661572 4.2800002 4276288
-1.7472333 -0.1627409 4.1920004 4603453
-1.7023053 -0.16056687 4.1360002 4798004
-1.6920965 -0.16165388 4.164 3424574
-1.6932286 -0.16386673 4.2210002 4538181
-1.671198 -0.16386673 4.2210002 4537147
-1.6491677 -0.16386673 4.2210002 3748914
-1.6271371 -0.16386673 4.2210002 3551549
-1.6051065 -0.16386673 4.2210002 4141374
-1.5830759 -0.16386673 4.2210002 3091244
-1.5503204 -0.1627409 4.1920004 2630683
-1.5284412 -0.1627409 4.1920004 3879982
-1.506562 -0.1627409 4.1920004 2700336
-1.5052245 -0.16499254 4.25 3489587
-1.5039798 -0.16732188 4.3100004 3159085
-1.5027962 -0.16972882 4.3720002 4146501
-1.4904714 -0.17093229 4.4030004 2829101
-1.4781563 -0.17217459 4.4350004 3092016
-1.4241697 -0.16852532 4.3410001 2828060
-1.3818188 -0.1661572 4.2800002 2958880
-1.3407397 -0.16386673 4.2210002 2893603
-1.3009014 -0.16165388 4.164 2631217
-1.2619654 -0.15947987 4.1080003 1710620
-1.2405245 -0.15947987 4.1080003 2303527
-1.2190839 -0.15947987 4.1080003 2236457
-1.1894801 -0.15839286 4.0800004 1184028
-1.1604546 -0.15734465 4.053 1908767
-1.1319923 -0.15633531 4.0270004 1646365
-1.0963526 -0.15427774 3.9740002 988185
-1.055041 -0.1513273 3.8980002 1646115
-1.0153189 -0.1484933 3.8250003 1251609
-0.96516913 -0.14398997 3.7090001 1448988
-0.91801536 -0.13975839 3.6000001 1251361
-0.87125009 -0.13541035 3.4880002 1646630
-0.8266322 -0.1312176 3.3800001 1382425
-0.79175806 -0.12842244 3.3080001 1119001
-0.75716728 -0.12554963 3.2340002 4343110
-0.73777014 -0.12512258 3.223 5066312
-0.71647465 -0.12434615 3.2030001 4936781
-0.69888347 -0.12419087 3.1990001 5462109
-0.68176055 -0.12411322 3.1970003 7105391
-0.66486645 -0.1240744 3.1960001 3749679
-0.6483885 -0.12411322 3.1970003 4804160
-0.63190001 -0.12415204 3.1980002 5328198
-0.61578596 -0.12426851 3.2010002 5328198
-0.60562938 -0.12562726 3.2360001 5068367
-0.59528947 -0.12702486 3.2720001 1581855
-0.58598745 -0.12873301 3.3160002 1382175
-0.57674068 -0.13055764 3.3630002 1316634
-0.57298917 -0.13377984 3.4460001 1382427
-0.56015742 -0.13502215 3.4780002 1448218
-0.55088753 -0.13723499 3.5350001 1383197
-0.53906465 -0.13894315 3.5790002 857882
-0.52663708 -0.14061248 3.6220002 792089
-0.51684457 -0.14313589 3.6870003 1251357
-0.50677842 -0.14577577 3.7550001 2238506
-0.4901641 -0.14666867 3.7780001 2107179
-0.47343424 -0.1476004 3.8020003 2567217
-0.45633453 -0.1484933 3.8250003 2370353
-0.43637082 -0.1484933 3.8250003 725530
-0.41390321 -0.1476004 3.8020003 921874
-0.38918814 -0.14577577 3.7550001 1185046
-0.36289683 -0.14313589 3.6870003 3160889
-0.33759493 -0.14061248 3.6220002 3028022
-0.30954 -0.13657501 3.5180001 988189
-0.28389499 -0.1331587 3.4300001 791060
-0.2620379 -0.13117878 3.3790002 2435113
-0.24172577 -0.12974238 3.3420002 3093813
-0.2201221 -0.12733543 3.2800002 1713195
-0.2007748 -0.12593785 3.2440002 2634806
-0.18401349 -0.12605432 3.2470002 2501941
-0.16696359 -0.12597667 3.2450001 592925
-0.15002705 -0.12597667 3.2450001 1251368
-0.13345964 -0.12632607 3.2540002 461845
-0.11694144 -0.12683074 3.2670002 1317152
-0.099798352 -0.12671429 3.2640002 1645599
-0.083878309 -0.12842244 3.3080001 1383456
-0.066391446 -0.1279954 3.2970002 1580835
-0.049258083 -0.1281895 3.302 1645345
-0.032596242 -0.13047999 3.3610001 1711910
-0.015219989 -0.1319164 3.3980002 1317152
0.0025461928 -0.1335469 3.4400001 3554879
0.020762714 -0.13525507 3.4840002 4475977
0.039460886 -0.13704087 3.5300002 4280397
0.057819337 -0.13688558 3.5260003 4279885
0.077368215 -0.13894315 3.5790002 4148047
0.097201966 -0.14061248 3.6220002 2764346
0.11748458 -0.14228182 3.6650002 2566969
0.13825332 -0.14398997 3.7090001 2435881
0.15858899 -0.14488287 3.7320001 2699053
0.17916472 -0.14577577 3.7550001 2633525
0.1987631 -0.14577577 3.7550001 1842724
0.21702397 -0.14488287 3.7320001 2896182
0.23650232 -0.14488287 3.7320001 2634297
0.25598064 -0.14488287 3.7320001 1714740
0.27715659 -0.14577577 3.7550001 4478305
0.30046937 -0.1476004 3.8020003 3620168
0.32225075 -0.1484933 3.8250003 2106929
0.34659842 -0.15039556 3.8740001 3223604
0.37145755 -0.15229782 3.9230001 3222834
0.39453033 -0.1533072 3.9490001 3025973
0.42050263 -0.1552871 4 2631722
0.44435909 -0.15633531 4.0270004 3289400
0.46537709 -0.15633531 4.0270004 3683385
0.48953542 -0.15734465 4.053 3880500
0.5106892 -0.15734465 4.053 4865345
0.53184289 -0.15734465 4.053 4274225
0.55299664 -0.15734465 4.053 3815472
0.57415026 -0.15734465 4.053 2960178
0.59530401 -0.15734465 4.053 2829873
0.61645776 -0.15734465 4.053 2170916
0.63761145 -0.15734465 4.053 1906461
0.6587652 -0.15734465 4.053 1840666
0.67991889 -0.15734465 4.053 1514013
0.69657534 -0.15633531 4.0270004 1973542
0.7081489 -0.15427774 3.9740002 1974314
0.72889036 -0.15427774 3.9740002 1776415
0.74001139 -0.15229782 3.9230001 1710622
0.75098777 -0.15039556 3.8740001 1840927
0.76145273 -0.1484933 3.8250003 1907997
0.7718147 -0.14666867 3.7780001 2171422
0.78671438 -0.14577577 3.7550001 2171169
0.8013739 -0.14488287 3.7320001 2170144
0.81579345 -0.14398997 3.7090001 1315610
0.83019805 -0.14313589 3.6870003 1120804
0.84944153 -0.14313589 3.6870003 1055013
0.87386835 -0.14398997 3.7090001 1448220
0.90430462 -0.14577577 3.7550001 1644825
0.93546724 -0.1476004 3.8020003 2301728
0.96712035 -0.14942501 3.8490002 1972767
0.99977702 -0.1513273 3.8980002 2629160
1.0201218 -0.1513273 3.8980002 2300965
1.0404665 -0.1513273 3.8980002 2760746
1.0608113 -0.1513273 3.8980002 2827826
1.0744994 -0.15039556 3.8740001 2958125
1.0876542 -0.14942501 3.8490002 3615794
1.1077433 -0.14942501 3.8490002 3353653
1.1278323 -0.14942501 3.8490002 3418676
1.1479212 -0.14942501 3.8490002 3814206
1.1680102 -0.14942501 3.8490002 2433567
1.1880991 -0.14942501 3.8490002 1643802
1.2160356 -0.15039556 3.8740001 1117731
1.2282772 -0.14942501 3.8490002 1908785
1.2483662 -0.14942501 3.8490002 2170923
1.2605458 -0.1484933 3.8250003 2039333
1.2805096 -0.1484933 3.8250003 1777955
1.3004733 -0.1484933 3.8250003 1382175
1.3204371 -0.1484933 3.8250003 1775913
1.3404008 -0.1484933 3.8250003 1578277
1.3603644 -0.1484933 3.8250003 1053728
1.3720282 -0.1476004 3.8020003 1645848
1.3662456 -0.14488287 3.7320001 3289654
1.3690151 -0.14313589 3.6870003 2235687
1.3716912 -0.14142773 3.6430001 2563371
1.3742899 -0.13975839 3.6000001 3156528
1.374892 -0.13793378 3.5530002 2761516
1.3934361 -0.13793378 3.5530002 1708832
1.3789955 -0.13471158 3.4700003 2563621
1.3661042 -0.13172229 3.3930001 4673110
1.3564878 -0.12912123 3.3260002 4935249
1.3449327 -0.1264037 3.256 4671305
1.3309737 -0.12353089 3.1820002 4672847
1.3281004 -0.12174509 3.1360002 5197900
1.3166012 -0.11922168 3.0710001 4079419
1.3291581 -0.1189111 3.0630002 1777712
1.3328483 -0.11782409 3.0350001 3089479
1.331358 -0.11631004 2.9960001 3814744
1.3366541 -0.11541714 2.973 4934765
1.3371621 -0.11413603 2.9400001 3948383
1.3396258 -0.11304902 2.9120002 4344420
1.3390056 -0.11172907 2.878 1846337
1.348381 -0.11126322 2.8660002 3095902
1.3647665 -0.11137968 2.8690002 3622498
1.3816643 -0.11153497 2.8730001 3884383
1.4088126 -0.11250552 2.8980002 5066853
1.4372046 -0.1135537 2.9250002 4603985
1.4668715 -0.11467953 2.9540002 5786182
1.4832928 -0.11475717 2.9560001 5918538
1.4972 -0.11464071 2.9530001 4542317
-0 -0 0 4275522
-0 -0 0 4275522
-0 -0 0 4275522
-0 -0 0 4275522
-0 -0 0 4275522
-0 -0 0 4275522
-0 -0 0 4275522
-0 -0 0 4275522
-0 -0 0 4275522
-0 -0 0 4275522
-0 -0 0 4275522
-1.8550566 -0.11841522 3.5240002 5192777
-1.8210284 -0.11740715 3.4940002 5261902
-1.7996963 -0.11720553 3.4880002 5590600
-1.7641261 -0.11606305 3.4540002 5654083
-1.7203166 -0.11434932 3.4030001 4473928
-1.6935501 -0.11374447 3.3850002 4474175
-1.6407312 -0.11135869 3.3140001 4736848
-1.5543627 -0.10662074 3.1730001 4605253
-1.4806129 -0.10265565 3.0550001 5393219
-1.4234368 -0.09976583 2.9690001 987417
-1.397508 -0.099026576 2.947 1315610
-1.4351232 -0.10282366 3.0600002 1644572
-1.5740532 -0.11404689 3.3940001 2236455
-1.7324245 -0.12695026 3.7780001 3816242
-1.9402812 -0.14381872 4.2800002 4669748
-2.0779204 -0.15581481 4.6370001 3484719
-2.0537188 -0.15581481 4.6370001 4734273
-1.9993173 -0.15349624 4.5680003 3879469
-1.9607719 -0.15235376 4.5340004 3025201
-1.8811393 -0.14795183 4.4030004 4670278
-1.8189108 -0.1448268 4.3100004 4078911
-1.7714076 -0.14281063 4.25 4603701
-1.7372898 -0.14183617 4.2210002 5459780
-1.7270436 -0.14281063 4.25 4866100
-1.7048618 -0.14281063 4.25 5130299
-1.6826798 -0.14281063 4.25 3485220
-1.660498 -0.14281063 4.25 3418904
-1.6271371 -0.14183617 4.2210002 4208430
-1.6051065 -0.14183617 4.2210002 3617077
-1.5721996 -0.1408617 4.1920004 3156524
-1.5503204 -0.1408617 4.1920004 4011065
-1.5284412 -0.1408617 4.1920004 3419177
-1.5169842 -0.14183617 4.2210002 3352871
-1.5052245 -0.14281063 4.25 3486253
-1.5039798 -0.1448268 4.3100004 3090984
-1.5027962 -0.14691015 4.3720002 3026223
-1.4799774 -0.14691015 4.3720002 2631720
-1.4571587 -0.14691015 4.3720002 2894892
-1.4139996 -0.1448268 4.3100004 2434587
-1.3721331 -0.14281063 4.25 3090984
-1.3226345 -0.13992082 4.164 2630182
-1.2834061 -0.13803908 4.1080003 2432035
-1.2619654 -0.13803908 4.1080003 1710113
-1.2405245 -0.13803908 4.1080003 1447196
-1.2190839 -0.13803908 4.1080003 2039333
-1.1894801 -0.13709822 4.0800004 2039333
-1.1604546 -0.13619094 4.053 1843746
-1.1319923 -0.1353173 4.0270004 1647648
-1.0894555 -0.13269629 3.9490001 1714468
-1.0417784 -0.12933604 3.8490002 1976617
-1.002843 -0.12695026 3.7780001 1252124
-0.95371932 -0.12315318 3.6650002 1251870
-0.90501016 -0.11925529 3.5490003 1645345
-0.86375654 -0.11619746 3.4580002 1776931
-0.82540935 -0.11340845 3.3750002 1448218
-0.78505641 -0.11021622 3.2800002 1316380
-0.76114744 -0.10924174 3.2510002 4408651
-0.73731238 -0.10823367 3.2210002 4868933
-0.71871156 -0.10796484 3.2130001 5133129
-0.69953889 -0.10759522 3.2020001 5725782
-0.68176055 -0.10742721 3.1970003 6579551
-0.66486645 -0.1073936 3.1960001 6645339
-0.64818567 -0.1073936 3.1960001 6120792
-0.63091207 -0.10729279 3.1930001 4540738
-0.61578596 -0.10756162 3.2010002 5000262
-0.60076338 -0.10786403 3.21 5791587
-0.5847373 -0.10799845 3.2140002 1382695
-0.573264 -0.10900652 3.2440002 1382943
-0.56696546 -0.11108988 3.3060002 921626
-0.55419993 -0.11199714 3.3330002 1053210
-0.54566222 -0.11384529 3.3880002 1119255
-0.53701794 -0.11579423 3.4460001 1053208
-0.52671391 -0.11750796 3.4970002 726298
-0.51573211 -0.11918808 3.5470002 660505
-0.51067662 -0.12241392 3.6430001 1316382
-0.50057024 -0.12463169 3.7090001 2500656
-0.48718002 -0.1261774 3.7550001 2500658
-0.47343424 -0.12775673 3.8020003 2763828
-0.45633453 -0.12852958 3.8250003 2830904
-0.43374687 -0.12775673 3.8020003 1976363
-0.41129044 -0.12695026 3.7780001 1381398
-0.38680431 -0.12540454 3.7320001 2434086
-0.35856608 -0.12241392 3.6430001 2699566
-0.33162966 -0.11955771 3.5580001 1448736
-0.3060205 -0.11686951 3.4780002 988187
-0.27909446 -0.11330765 3.3720002 2304812
-0.25785023 -0.11172832 3.325 3685950
-0.23731366 -0.11024982 3.2810001 4739921
-0.21790744 -0.10910733 3.2470002 2699570
-0.19972266 -0.10843528 3.2270002 2897719
-0.18237001 -0.10813286 3.2180002 2897469
-0.16578019 -0.10826726 3.2220001 2699068
-0.14961095 -0.1087377 3.2360001 2569015
-0.1327624 -0.10877131 3.2370002 2304299
-0.11561704 -0.10853609 3.2300003 2567730
-0.10004295 -0.10994739 3.2720001 3028782
-0.083497971 -0.11065305 3.2930002 3094062
-0.066673361 -0.11125789 3.3110001 3488569
-0.049780201 -0.11213155 3.3370001 3555397
-0.032683529 -0.11324044 3.3700001 3488834
-0.015260301 -0.11448373 3.4070001 4081993
0.0025498939 -0.11576062 3.4450002 3819334
0.020762714 -0.11707112 3.4840002 4345163
0.038957842 -0.11710472 3.4850001 4477010
0.056933843 -0.11666789 3.4720001 4016459
0.076179259 -0.11841522 3.5240002 4477262
0.096047997 -0.12026336 3.5790002 2764859
0.11610617 -0.12170827 3.6220002 1712173
0.13743328 -0.12389243 3.6870003 1842724
0.15858899 -0.12540454 3.7320001 2039335
0.17916472 -0.1261774 3.7550001 1711658
0.19998056 -0.12695026 3.7780001 1381923
0.21969897 -0.12695026 3.7780001 1842726
0.2394174 -0.12695026 3.7780001 3947580
0.25755823 -0.1261774 3.7550001 4606280
0.27885422 -0.12695026 3.7780001 2635072
0.30228704 -0.12852958 3.8250003 791850
0.32427272 -0.12933604 3.8490002 1777201
0.35098234 -0.13182262 3.9230001 3684153
0.3762866 -0.13353635 3.9740002 3486772
0.39962554 -0.13441001 4 3158068
0.4260743 -0.13619094 4.053 3487801
0.44722801 -0.13619094 4.053 3882559
0.46838173 -0.13619094 4.053 4408901
0.48953542 -0.13619094 4.053 4407876
0.5106892 -0.13619094 4.053 4208182
0.53184289 -0.13619094 4.053 3815472
0.55299664 -0.13619094 4.053 3948085
0.57415026 -0.13619094 4.053 3355437
0.59530401 -0.13619094 4.053 2894888
0.61645776 -0.13619094 4.053 2894639
0.63761145 -0.13619094 4.053 2367271
0.6587652 -0.13619094 4.053 2302502
0.67555732 -0.1353173 4.0270004 2434345
0.68740755 -0.13353635 3.9740002 1776163
0.69906092 -0.13182262 3.9230001 1053982
0.7149508 -0.13098256 3.8980002 1973794
0.73076832 -0.1301761 3.8740001 1909541
0.74148899 -0.12852958 3.8250003 1513759
0.7520963 -0.12695026 3.7780001 1712160
0.76711595 -0.1261774 3.7550001 1974560
0.78189564 -0.12540454 3.7320001 1578782
0.8013739 -0.12540454 3.7320001 1908771
0.82085228 -0.12540454 3.7320001 1513759
0.83515173 -0.12463169 3.7090001 1843498
0.85980892 -0.12540454 3.7320001 1185314
0.88470626 -0.1261774 3.7550001 1514533
0.91562349 -0.12775673 3.8020003 1382427
0.94703138 -0.12933604 3.8490002 2367772
0.9794324 -0.13098256 3.8980002 2039587
1.0061891 -0.13182262 3.9230001 2039078
1.0266644 -0.13182262 3.9230001 1840418
1.0471395 -0.13182262 3.9230001 1578529
1.0608113 -0.13098256 3.8980002 2039076
1.081156 -0.13098256 3.8980002 3091248
1.0947187 -0.1301761 3.8740001 3091244
1.1077433 -0.12933604 3.8490002 3222832
1.1278323 -0.12933604 3.8490002 3288623
1.1479212 -0.12933604 3.8490002 3157037
1.1680102 -0.12933604 3.8490002 1250063
1.1880991 -0.12933604 3.8490002 2369320
1.2081882 -0.12933604 3.8490002 988200
1.2206185 -0.12852958 3.8250003 1513511
1.2405822 -0.12852958 3.8250003 1776165
1.2605458 -0.12852958 3.8250003 1447200
1.2728097 -0.12775673 3.8020003 1645599
1.2926534 -0.12775673 3.8020003 2435631
1.3124971 -0.12775673 3.8020003 3355965
1.3239305 -0.12695026 3.7780001 1843494
1.3354689 -0.1261774 3.7550001 1973540
1.3467672 -0.12540454 3.7320001 1908248
1.3497716 -0.12389243 3.6870003 3225128
1.34488 -0.12170827 3.6220002 2695977
1.3475934 -0.12026336 3.5790002 3221297
1.3559661 -0.1193561 3.5520003 2236709
1.374505 -0.1193561 3.5520003 2696240
1.3797095 -0.11821361 3.5180001 2235689
1.366676 -0.11555901 3.4390001 2235687
1.3540255 -0.11300522 3.3630002 4738899
1.3279387 -0.10940975 3.256 5328980
1.313953 -0.10688957 3.1810002 5590095
1.3117328 -0.10537745 3.1360002 4736841
1.3128544 -0.10416776 3.1000001 5263183
1.3131715 -0.10292447 3.0630002 6121835
1.3300259 -0.10299167 3.0650001 4214874
1.3372399 -0.10231962 3.0450001 2694973
1.350022 -0.10208441 3.0380001 2892615
1.3487934 -0.10080752 3.0000002 3554123
1.3562645 -0.10020266 2.9820001 2963021
1.3502066 -0.09862335 2.9350002 3423836
1.3627337 -0.09842173 2.9290001 5462124
1.3497925 -0.096405588 2.8690002 4474991
1.3657179 -0.096472785 2.8710001 3948649
1.3898398 -0.097111233 2.8900001 3749719
1.4102709 -0.097480863 2.901 3815260
1.4411354 -0.098556139 2.9330001 4472672
1.4609126 -0.098858565 2.9420002 4603735
1.4822893 -0.099261798 2.9540002 5327722
1.496693 -0.099194594 2.9520001 4143452
-0 -0 0 4275522
-0 -0 0 4275522
-0 -0 0 4275522
-0 -0 0 4275522
-0 -0 0 4275522
-0 -0 0 4275522
-0 -0 0 4275522
-0 -0 0 4275522
-0 -0 0 4275522
-0 -0 0 4275522
-1.8729545 -0.10098753 3.5580001 5786182
-1.8533419 -0.10093077 3.5560002 5066305
-1.8327184 -0.10081724 3.5520003 5720639
-1.796814 -0.099852204 3.5180001 5457484
-1.7501428 -0.098262742 3.4620001 5063755
-1.7105606 -0.097042263 3.4190001 4475216
-1.6432067 -0.094203942 3.3190002 3683383
-1.5577918 -0.090258673 3.1800001 5525838
-1.4849749 -0.086966217 3.0640001 4473920
-1.4219985 -0.084184662 2.9660001 1973540
-1.3941885 -0.083446696 2.9400001 1776158
-1.4140185 -0.085575439 3.0150001 1250069
-1.5179365 -0.092898317 3.2730002 2170395
-1.6508015 -0.10217963 3.6000001 4736311
-1.8133467 -0.11353292 4 4997432
-1.9730611 -0.12497137 4.4030004 4931643
-2.0081005 -0.12868957 4.5340004 4800317
-1.9695549 -0.12772453 4.5 4208947
-1.9460682 -0.12772453 4.5 4010813
-1.8948109 -0.12587963 4.4350004 4868682
-1.8450761 -0.12409148 4.3720002 4408382
-1.7964158 -0.12233173 4.3100004 4144687
-1.7615732 -0.12148023 4.2800002 3554613
-1.7514256 -0.12233173 4.3100004 2892320
-1.7289306 -0.12233173 4.3100004 4405299
-1.7064354 -0.12233173 4.3100004 5787212
-1.6722193 -0.12148023 4.2800002 2696728
-1.6271371 -0.11980561 4.2210002 3617580
-1.5940788 -0.11898251 4.1920004 4012336
-1.5721996 -0.11898251 4.1920004 4867657
-1.5503204 -0.11898251 4.1920004 3618360
-1.5284412 -0.11898251 4.1920004 3418926
-1.506562 -0.11898251 4.1920004 2299671
-1.4846828 -0.11898251 4.1920004 2630946
-1.4830426 -0.12062872 4.25 2170395
-1.4608607 -0.12062872 4.25 2695973
-1.4386787 -0.12062872 4.25 2303527
-1.4164969 -0.12062872 4.25 1907999
-1.3848008 -0.11980561 4.2210002 1184522
-1.3353277 -0.11739304 4.1360002 2170912
-1.304847 -0.11659832 4.1080003 2039330
-1.2746586 -0.11580358 4.0800004 1906461
-1.2533638 -0.11580358 4.0800004 1840929
-1.2320693 -0.11580358 4.0800004 1315607
-1.2107747 -0.11580358 4.0800004 2170146
-1.1816083 -0.11503723 4.053 1578777
-1.1604546 -0.11503723 4.053 1710618
-1.1244025 -0.11353292 4 1252120
-1.0822825 -0.11134741 3.9230001 1121819
-1.0352826 -0.10856586 3.8250003 1121821
-0.98452747 -0.1052734 3.7090001 1318433
-0.93680477 -0.10217963 3.6000001 1317152
-0.89047492 -0.099114239 3.4920001 1514013
-0.85301578 -0.096928731 3.4150002 1382425
-0.8158713 -0.094686456 3.3360002 1579806
-0.78481698 -0.093068607 3.279 724243
-0.76044506 -0.092188731 3.2480001 4540491
-0.7352522 -0.091166936 3.2120001 4871756
-0.71647465 -0.090911485 3.2030001 4410954
-0.69844657 -0.090741187 3.1970003 6711389
-0.68090749 -0.090627655 3.1930001 5066307
-0.66341025 -0.090514123 3.1890001 5130817
-0.64595473 -0.090400591 3.1850002 4606533
-0.6303193 -0.090542503 3.1900001 4014663
-0.61097658 -0.090145141 3.1760001 5395028
-0.59365153 -0.090031609 3.1720002 6317672
-0.57673216 -0.089974836 3.1700001 1185062
-0.56301451 -0.090428971 3.1860001 1448220
-0.55204529 -0.09136562 3.2190001 1316382
-0.54389077 -0.092841543 3.2710001 1316130
-0.53277767 -0.093891725 3.3080001 1382425
-0.52236921 -0.095140591 3.3520002 1185564
-0.5131582 -0.096701659 3.4070001 1185566
-0.5115155 -0.099852204 3.5180001 1383458
-0.50170505 -0.10158359 3.5790002 1513763
-0.49463198 -0.10402454 3.6650002 2105896
-0.48718002 -0.10657903 3.7550001 2631472
-0.47343424 -0.10791305 3.8020003 2437168
-0.45633453 -0.10856586 3.8250003 2371123
-0.43374687 -0.10791305 3.8020003 2106666
-0.40878654 -0.10657903 3.7550001 1578525
-0.37986007 -0.10402454 3.6650002 2631722
-0.35019985 -0.10098753 3.5580001 2699053
-0.32230902 -0.09814921 3.4580002 2699057
-0.29915747 -0.096502982 3.4000001 2700086
-0.27487326 -0.094260707 3.3210001 3489854
-0.25544623 -0.093494363 3.2940001 4410184
-0.23622872 -0.092699632 3.2660003 3753026
-0.21750478 -0.091990054 3.2410002 3555898
-0.19953698 -0.091507539 3.2240002 3095098
-0.18225665 -0.091280468 3.2160001 2832189
-0.16526566 -0.091166936 3.2120001 4342092
-0.14854759 -0.091195315 3.2130001 4868432
-0.1321882 -0.091479145 3.223 3423813
-0.11525909 -0.091394007 3.2200003 2701117
-0.098575331 -0.091507539 3.2240002 2568754
-0.082762636 -0.092642866 3.2640002 3685950
-0.066451855 -0.093664661 3.3000002 3685950
-0.049750369 -0.094658077 3.3350003 4213840
-0.032712623 -0.095736638 3.3730001 3818567
-0.015260301 -0.096701659 3.4070001 5463642
0.0025262083 -0.096871965 3.4130001 4740434
0.020345552 -0.096900351 3.4140003 4476749
0.038152974 -0.096871965 3.4130001 4410958
0.055966362 -0.096871965 3.4130001 4212042
0.074817374 -0.098234363 3.4610002 5133394
0.093552195 -0.098943941 3.4860001 2304308
0.1140546 -0.10098753 3.5580001 1449001
0.13579316 -0.1034001 3.6430001 1317152
0.15667674 -0.10464897 3.6870003 1908521
0.1769699 -0.1052734 3.7090001 1381923
0.19754565 -0.10592622 3.7320001 3554116
0.21702397 -0.10592622 3.7320001 3751491
0.23795986 -0.10657903 3.7550001 4211522
0.25755823 -0.10657903 3.7550001 3487031
0.27885422 -0.10723184 3.7780001 3031102
0.30228704 -0.10856586 3.8250003 597803
0.32427272 -0.10924705 3.8490002 2174271
0.35098234 -0.11134741 3.9230001 3948352
0.37874845 -0.11353292 4 3158066
0.40232307 -0.11429927 4.0270004 3618362
0.42891273 -0.11580358 4.0800004 3685178
0.45020735 -0.11580358 4.0800004 4144955
0.47150201 -0.11580358 4.0800004 3356215
0.48953542 -0.11503723 4.053 4343110
0.5106892 -0.11503723 4.053 3550765
0.53184289 -0.11503723 4.053 3091495
0.54576522 -0.11353292 4 3289901
0.56664228 -0.11353292 4 3092265
0.58751941 -0.11353292 4 2500128
0.60839653 -0.11353292 4 2434093
0.63352126 -0.11429927 4.0270004 2040103
0.65015072 -0.11353292 4 2171173
0.66666615 -0.11279496 3.9740002 1973790
0.67858577 -0.11134741 3.9230001 1777185
0.69032937 -0.10995663 3.8740001 1973794
0.70596349 -0.10924705 3.8490002 1776931
0.71718675 -0.10791305 3.8020003 1645597
0.73237789 -0.10723184 3.7780001 1054232
0.74751765 -0.10657903 3.7550001 1448990
0.76241726 -0.10592622 3.7320001 1383197
0.78189564 -0.10592622 3.7320001 1513509
0.8013739 -0.10592622 3.7320001 1448738
0.82085228 -0.10592622 3.7320001 1514529
0.84550953 -0.10657903 3.7550001 1644575
0.87040681 -0.10723184 3.7780001 1907999
0.89577985 -0.10791305 3.8020003 1645349
0.92694235 -0.10924705 3.8490002 1514013
0.95908761 -0.11063784 3.8980002 1907997
0.98571396 -0.11134741 3.9230001 2236457
1.0128577 -0.11208537 3.9490001 1907749
1.0334686 -0.11208537 3.9490001 1710115
1.0540795 -0.11208537 3.9490001 1841701
1.0608113 -0.11063784 3.8980002 1644829
1.081156 -0.11063784 3.8980002 2236709
1.0876542 -0.10924705 3.8490002 2631973
1.100836 -0.10856586 3.8250003 3288876
1.1207998 -0.10856586 3.8250003 2828072
1.1407635 -0.10856586 3.8250003 1644572
1.1607273 -0.10856586 3.8250003 2370092
1.1806909 -0.10856586 3.8250003 1317154
1.2006546 -0.10856586 3.8250003 1382443
1.2132788 -0.10791305 3.8020003 1448486
1.2331225 -0.10791305 3.8020003 1317413
1.252966 -0.10791305 3.8020003 1579556
1.2728097 -0.10791305 3.8020003 1317152
1.2844936 -0.10723184 3.7780001 2236714
1.3042121 -0.10723184 3.7780001 1448990
1.3158705 -0.10657903 3.7550001 1975080
1.3272889 -0.10592622 3.7320001 1579552
1.3305281 -0.10464897 3.6870003 4342083
1.3259758 -0.10280406 3.6220002 2631716
1.3289138 -0.10158359 3.5790002 2697263
1.3298966 -0.10024957 3.5320001 3551286
1.3456589 -0.10005088 3.5250001 5067605
1.3632829 -0.099994123 3.5230002 3287864
1.3699049 -0.099142626 3.4930003 2431785
1.3551512 -0.096786812 3.4100001 2170921
1.3367127 -0.094232328 3.3200002 3289400
1.3079544 -0.091025025 3.2070003 4669765
1.2966043 -0.089094959 3.1390002 5656660
1.2975112 -0.088044785 3.1020002 5723993
1.3086194 -0.087704182 3.0900002 5066833
1.3148863 -0.087051369 3.0670002 5657952
1.3334975 -0.087221667 3.0730002 4275788
1.3407532 -0.086654007 3.0530002 2826041
1.353577 -0.086455323 3.0460002 1774119
1.3685756 -0.086398549 3.0440001 1315357
1.3835534 -0.086341783 3.0420001 1119784
1.3847094 -0.085433528 3.0100002 1778486
1.386927 -0.08461041 2.9810002 1644845
1.3864895 -0.083645374 2.947 2499654
1.3952109 -0.083248012 2.9330001 2959435
1.4143664 -0.083475083 2.9410002 1582911
1.4302024 -0.083503462 2.9420002 4209766
1.448997 -0.083702147 2.9490001 5063019
1.4668715 -0.083844066 2.9540002 3816284
1.4817874 -0.083815679 2.9530001 4144745
1.495172 -0.083702147 2.9490001 3420502
-0 -0 0 4275522
-0 -0 0 4275522
-0 -0 0 4275522
-0 -0 0 4275522
-0 -0 0 4275522
-0 -0 0 4275522
-0 -0 0 4275522
-0 -0 0 4275522
-0 -0 0 4275522
-0 -0 0 4275522
-1.9066446 -0.083899848 3.6220002 5392716
-1.8877404 -0.083899848 3.6220002 5458501
-1.8574847 -0.083390236 3.6000001 5919050
-1.8279697 -0.082903795 3.5790002 5592399
-1.7946295 -0.082232043 3.5500002 5786197
-1.7265706 -0.079938807 3.4510002 4405058
-1.6590495 -0.077622414 3.3510001 6315854
-1.5719981 -0.074333131 3.2090001 5327428
-1.488852 -0.071159668 3.072 4933188
-1.4234368 -0.068773784 2.9690001 2630184
-1.3903949 -0.067916714 2.9320002 2301466
-1.3980727 -0.06905175 2.9810002 2301720
-1.4632111 -0.073082276 3.1550002 2629148
-1.5590904 -0.078757443 3.4000001 3683373
-1.6918526 -0.08644788 3.7320001 6250836
-1.8283192 -0.094508938 4.0800004 5657926
-1.8823172 -0.098446801 4.25 4603705
-1.8863962 -0.099836648 4.3100004 4408125
-1.8773072 -0.10055473 4.3410001 4143682
-1.8678948 -0.10127281 4.3720002 4340281
-1.8319933 -0.10055473 4.3410001 3879465
-1.7839117 -0.099141724 4.2800002 6118225
-1.7615732 -0.099141724 4.2800002 4474177
-1.7270436 -0.098446801 4.25 4933186
-1.7048618 -0.098446801 4.25 4801850
-1.6826798 -0.098446801 4.25 4473652
-1.6378372 -0.097103305 4.1920004 3946804
-1.6051643 -0.096454702 4.164 3617841
-1.5727837 -0.095806114 4.1360002 3814959
-1.5616981 -0.096454702 4.164 3288625
-1.5399652 -0.096454702 4.164 3223853
-1.5284412 -0.097103305 4.1920004 3156526
-1.4964989 -0.096454702 4.164 3617075
-1.4747659 -0.096454702 4.164 2236214
-1.4530327 -0.096454702 4.164 2367271
-1.4216753 -0.095806114 4.1360002 3088936
-1.4000884 -0.095806114 4.1360002 2039579
-1.3691692 -0.095157526 4.1080003 1974043
-1.3477285 -0.095157526 4.1080003 2301981
-1.3085307 -0.093883507 4.053 1776415
-1.287377 -0.093883507 4.053 2105121
-1.2581005 -0.093281254 4.0270004 2169629
-1.2370825 -0.093281254 4.0270004 2629930
-1.2239157 -0.093883507 4.053 2301730
-1.2027621 -0.093883507 4.053 2104351
-1.1740284 -0.093281254 4.0270004 1446423
-1.1530104 -0.093281254 4.0270004 1448218
-1.1170939 -0.092053555 3.9740002 1251609
-1.0753856 -0.090293095 3.8980002 1120534
-1.0225614 -0.087513417 3.7780001 1055515
-0.972848 -0.084895894 3.6650002 1450019
-0.92405379 -0.0822552 3.5510001 1449253
-0.89021993 -0.080865368 3.4910002 1579804
-0.84477288 -0.078340493 3.3820002 1843746
-0.80902344 -0.07662636 3.3080001 1645345
-0.78409904 -0.075885117 3.2760003 1514013
-0.75950855 -0.075143874 3.2440002 4408135
-0.73433656 -0.074309967 3.2080002 5264463
-0.71557993 -0.074101493 3.1990001 5067084
-0.69800961 -0.074008837 3.1950002 4804164
-0.68026775 -0.073893011 3.1900001 4209463
-0.66237015 -0.073754035 3.1840003 5920333
-0.64494067 -0.073661372 3.1800001 5330256
-0.62775058 -0.073591881 3.177 5264980
-0.61059189 -0.073522396 3.1740003 5263440
-0.59309012 -0.07340657 3.1690001 5595741
-0.57509476 -0.073221266 3.1610003 1842476
-0.55841988 -0.073198095 3.1600001 1315610
-0.5434705 -0.07340657 3.1690001 1185566
-0.53258395 -0.074194148 3.2030001 462358
-0.52536899 -0.075560816 3.2620001 3095098
-0.51410979 -0.076417893 3.2990003 4475981
-0.50999522 -0.078433149 3.3860002 3882559
-0.50729889 -0.080819033 3.4890001 5133396
-0.49876127 -0.082417347 3.5580001 1842474
-0.48882863 -0.083899848 3.6220002 2500656
-0.48121193 -0.085915104 3.7090001 2237486
-0.47044569 -0.087513417 3.7780001 1778986
-0.45359057 -0.088069357 3.8020003 3028281
-0.42576098 -0.08644788 3.7320001 2437166
-0.39898875 -0.084895894 3.6650002 1646882
-0.36877003 -0.082417347 3.5580001 2108201
-0.34035724 -0.080100954 3.4580002 3817536
-0.31466606 -0.07820151 3.3760002 3555647
-0.29299834 -0.077135973 3.3300002 3754051
-0.27189359 -0.076093592 3.2850001 3950918
-0.25474828 -0.076093592 3.2850001 3555647
-0.2352161 -0.075329177 3.2520001 3620420
-0.2169679 -0.074889064 3.233 2765113
-0.1994132 -0.074634261 3.2220001 4279120
-0.18208663 -0.074425787 3.2130001 2635060
-0.1651113 -0.074333131 3.2090001 2964285
-0.14762291 -0.07396251 3.1930001 4145481
-0.13079372 -0.073869854 3.1890001 3029568
-0.11407786 -0.073823519 3.187 3358531
-0.097505189 -0.073869854 3.1890001 3029566
-0.080987707 -0.073985673 3.1940002 3488832
-0.064901307 -0.074657425 3.223 4014665
-0.048616622 -0.075491324 3.2590001 4015946
-0.031975549 -0.076371558 3.2970002 4212809
-0.014915409 -0.077135973 3.3300002 4081991
0.0024662544 -0.0771823 3.3320003 4673358
0.019892633 -0.077321276 3.3380001 5332056
0.037359286 -0.077413939 3.3420002 4740172
0.054834899 -0.077460267 3.3440001 4741199
0.072353005 -0.077529758 3.3470001 5662820
0.091780983 -0.079220727 3.4200001 5597540
0.1104323 -0.079799823 3.4450002 1516329
0.13135743 -0.081629775 3.5240002 1448486
0.15297973 -0.083390236 3.6000001 1777451
0.17281882 -0.083899848 3.6220002 1974578
0.19399914 -0.084895894 3.6650002 4540757
0.21312778 -0.084895894 3.6650002 6712689
0.23225643 -0.084895894 3.6650002 5858651
0.25289407 -0.085405506 3.6870003 3094324
0.27545896 -0.08644788 3.7320001 5531236
0.29857266 -0.087513417 3.7780001 925224
0.32225075 -0.088602133 3.8250003 4480356
0.34874564 -0.090293095 3.8980002 7701370
0.37874845 -0.092655815 4 7831412
0.40492058 -0.093883507 4.053 7501675
0.43185624 -0.095157526 4.1080003 6778470
0.45329702 -0.095157526 4.1080003 5928050
0.47150201 -0.094508938 4.0800004 3950670
0.48953542 -0.093883507 4.053 3227461
0.5106892 -0.093883507 4.053 4279120
0.52843118 -0.093281254 4.0270004 3949383
0.54221779 -0.092053555 3.9740002 3093561
0.56295913 -0.092053555 3.9740002 2830643
0.58370054 -0.092053555 3.9740002 2697517
0.60839653 -0.092655815 4 1777705
0.62927359 -0.092655815 4 1974310
0.64592475 -0.092053555 3.9740002 1712162
0.6581105 -0.090872191 3.9230001 1777183
0.67010993 -0.089737162 3.8740001 1579806
0.68159783 -0.088602133 3.8250003 1907749
0.69734299 -0.088069357 3.8020003 2369318
0.70832092 -0.086980648 3.7550001 1515032
0.72346061 -0.08644788 3.7320001 1646117
0.74293894 -0.08644788 3.7320001 460821
0.76241726 -0.08644788 3.7320001 1382427
0.78189564 -0.08644788 3.7320001 1777705
0.80631274 -0.086980648 3.7550001 1909289
0.8259111 -0.086980648 3.7550001 1512991
0.8506884 -0.087513417 3.7780001 1777185
0.87593615 -0.088069357 3.8020003 1513241
0.9011988 -0.088602133 3.8250003 1579556
0.92694235 -0.089158066 3.8490002 1514529
0.95908761 -0.090293095 3.8980002 1778214
0.9794324 -0.090293095 3.8980002 1776933
0.99977702 -0.090293095 3.8980002 1973544
1.0201218 -0.090293095 3.8980002 2170669
1.0404665 -0.090293095 3.8980002 1643550
1.0474763 -0.089158066 3.8490002 1776158
1.0609087 -0.088602133 3.8250003 2236966
1.0743729 -0.088069357 3.8020003 2566950
1.0873094 -0.087513417 3.7780001 2698803
1.1070279 -0.087513417 3.7780001 2633010
1.1267463 -0.087513417 3.7780001 3026478
1.1464647 -0.087513417 3.7780001 1777185
1.166183 -0.087513417 3.7780001 2104871
1.1859015 -0.087513417 3.7780001 1973033
1.2056199 -0.087513417 3.7780001 592409
1.2178787 -0.086980648 3.7550001 1646119
1.2450567 -0.087513417 3.7780001 1447718
1.2647752 -0.087513417 3.7780001 1579554
1.2844936 -0.087513417 3.7780001 2170919
1.2962722 -0.086980648 3.7550001 1843746
1.3078107 -0.08644788 3.7320001 922905
1.3191088 -0.085915104 3.7090001 1514783
1.3146498 -0.084386289 3.6430001 2370351
1.310234 -0.082903795 3.5790002 2172711
1.315918 -0.082093053 3.5440001 2104878
1.3159651 -0.080958024 3.4950001 4012096
1.3330612 -0.080888532 3.4920001 7367529
1.3512869 -0.080888532 3.4920001 2367275
1.3546096 -0.080008298 3.4540002 2564652
1.3464084 -0.078479484 3.3880002 1776415
1.3198024 -0.075931445 3.2780001 2302250
1.3063229 -0.074194148 3.2030001 4670280
1.300735 -0.072943293 3.1490002 4997447
1.2979295 -0.071877755 3.1030002 5789277
1.3107369 -0.071692437 3.095 3483706
1.3256043 -0.071622953 3.0920002 3944005
1.3391387 -0.07148397 3.0860002 2433332
1.3548062 -0.071460798 3.085 2236459
1.3749071 -0.071669273 3.0940001 1381150
1.3933035 -0.0717851 3.0990002 1776933
1.4085684 -0.071738765 3.0970001 1316900
1.4219723 -0.071599782 3.0910001 1514281
1.4353135 -0.071460798 3.085 1774123
1.4373008 -0.070765883 3.0550001 2430777
1.4375477 -0.070001468 3.0220001 1708339
1.4518776 -0.069931976 3.0190001 1973558
1.4656901 -0.069839321 3.0150001 2103872
1.4819175 -0.069862485 3.016 2956106
1.4976588 -0.069862485 3.016 2632010
1.5113931 -0.06976983 3.0120001 3024971
1.5240715 -0.069630846 3.006 3812169
-0 -0 0 4275522
-0 -0 0 4275522
-0 -0 0 4275522
-0 -0 0 4275522
-0 -0 0 4275522
-0 -0 0 4275522
-0 -0 0 4275522
-0 -0 0 4275522
-0 -0 0 4275522
-1.92928 -0.065767258 3.6650002 5853017
-1.8986852 -0.065372474 3.6430001 4799554
-1.868836 -0.064995639 3.6220002 5654596
-1.8386953 -0.064600855 3.6000001 6117714
-1.7946295 -0.063703619 3.5500002 6313042
-1.7425805 -0.062501326 3.4830003 7827047
-1.661525 -0.06022235 3.3560002 5591116
-1.5729779 -0.057620373 3.2110002 6117712
-1.4917599 -0.055233728 3.0780001 5394502
-1.4272723 -0.053421319 2.9770002 3814707
-1.3913434 -0.052649695 2.9340003 2629663
-1.3769679 -0.052685585 2.9360001 4011063
-1.4191524 -0.054910727 3.0600002 4076093
-1.4930582 -0.058427881 3.256 5918297
-1.5948385 -0.063129388 3.5180001 4672576
-1.7037425 -0.068225682 3.8020003 4999742
-1.7600774 -0.071312167 3.9740002 5522756
-1.7625331 -0.072263233 4.0270004 4996165
-1.7765441 -0.073716752 4.1080003 5787478
-1.767066 -0.074219204 4.1360002 5064521
-1.7454791 -0.074219204 4.1360002 5262655
-1.7122219 -0.073716752 4.1080003 5262664
-1.6792568 -0.073214307 4.0800004 4999231
-1.6693403 -0.073716752 4.1080003 5195840
-1.6366674 -0.073214307 4.0800004 4670781
-1.6264586 -0.073716752 4.1080003 4209978
-1.6050179 -0.073716752 4.1080003 4274225
-1.5727836 -0.073214307 4.0800004 4736824
-1.5412215 -0.072729789 4.053 4735819
-1.5301942 -0.073214307 4.0800004 2827563
-1.5192548 -0.073716752 4.1080003 3682351
-1.4978141 -0.073716752 4.1080003 3618609
-1.4763732 -0.073716752 4.1080003 3552818
-1.4450157 -0.073214307 4.0800004 2960435
-1.423721 -0.073214307 4.0800004 3353135
-1.3931456 -0.072729789 4.053 3154980
-1.3540506 -0.071778722 4 2697764
-1.3161756 -0.070863545 3.9490001 2500387
-1.2955647 -0.070863545 3.9490001 2500134
-1.2665596 -0.070396982 3.9230001 2435111
-1.2460843 -0.070396982 3.9230001 2171171
-1.2256091 -0.070396982 3.9230001 2367521
-1.2131211 -0.070863545 3.9490001 2958375
-1.2000595 -0.071312167 3.9740002 1972765
-1.1870339 -0.071778722 4 2170146
-1.1740284 -0.072263233 4.0270004 2039076
-1.1452796 -0.071778722 4 2304812
-1.1170939 -0.071312167 3.9740002 1646630
-1.0687643 -0.069517694 3.8740001 1843744
-1.0163362 -0.067382276 3.7550001 2370351
-0.96143395 -0.064995639 3.6220002 1778214
-0.91546643 -0.063129388 3.5180001 2042160
-0.87874472 -0.061837371 3.4460001 2304297
-0.83652997 -0.060096741 3.3490002 2237734
-0.80364305 -0.058966223 3.2860003 2499879
-0.77452511 -0.058068987 3.2360001 1644579
-0.75786966 -0.058086935 3.2370002 4012873
-0.73387873 -0.057530649 3.2060001 5265485
-0.71602732 -0.057440925 3.2010002 5331537
-0.69844657 -0.05736915 3.1970003 5264210
-0.68069428 -0.057279423 3.1920002 6445926
-0.66174603 -0.057082035 3.1810002 6512731
-0.64433223 -0.057010252 3.177 4800830
-0.62696022 -0.056938473 3.1730001 5527633
-0.60962999 -0.056866694 3.1690001 5395277
-0.59271574 -0.056830805 3.1670001 5791057
-0.56854516 -0.05607713 3.1250002 2039076
-0.55046773 -0.055897683 3.1150002 1316380
-0.53403819 -0.055879738 3.1140001 1251359
-0.52227479 -0.056364242 3.141 1513763
-0.51200128 -0.057046141 3.1790001 2500658
-0.50740874 -0.058427881 3.256 2367275
-0.50095809 -0.059684012 3.3260002 2105126
-0.50279152 -0.062052708 3.4580002 1778984
-0.49315408 -0.063129388 3.5180001 1317154
-0.48882863 -0.064995639 3.6220002 2370101
-0.47835761 -0.066162042 3.6870003 2633273
-0.46758166 -0.067382276 3.7550001 2107949
-0.45359057 -0.068225682 3.8020003 2107179
-0.42576098 -0.066969551 3.7320001 1776933
-0.39659372 -0.065372474 3.6430001 1186077
-0.3646242 -0.063129388 3.5180001 1382945
-0.33592808 -0.061245196 3.4130001 3686211
-0.30953968 -0.059594285 3.3210001 3424576
-0.28877494 -0.058894444 3.2820001 4017227
-0.26990718 -0.058517605 3.2610002 3292473
-0.25288713 -0.058517605 3.2610002 3554877
-0.2352161 -0.058356103 3.2520001 4016459
-0.21757188 -0.058176655 3.2420001 5266013
-0.1994132 -0.057817765 3.2220001 6253673
-0.18208663 -0.057656258 3.2130001 4609110
-0.16469969 -0.057440925 3.2010002 4216407
-0.14734551 -0.057189699 3.187 3161162
-0.13046561 -0.057082035 3.1810002 3424322
-0.1137915 -0.057046141 3.1790001 3292990
-0.097444035 -0.057189699 3.187 3094848
-0.08086092 -0.057225589 3.1890001 3687498
-0.064095832 -0.05711792 3.1830001 3159871
-0.047960248 -0.057692152 3.2150002 3224377
-0.031180281 -0.057692152 3.2150002 3488319
-0.01461531 -0.058553498 3.2630002 2830643
0.0024181432 -0.058625273 3.2670002 4542542
0.019684054 -0.059271283 3.3030002 4739923
0.036956854 -0.059325118 3.3060002 4937300
0.054277368 -0.059396897 3.3100002 5464159
0.07174772 -0.059558399 3.3190002 5135192
0.090304978 -0.060383853 3.3650002 5003091
0.10882951 -0.060922194 3.3950002 1910054
0.1287109 -0.061962985 3.4530001 1711658
0.14987764 -0.063290894 3.5270002 1448488
0.17076713 -0.064224012 3.5790002 1711660
