# .PCD v0.7 - Point Cloud Data file format
VERSION 0.7
FIELDS x y z rgb
SIZE 4 4 4 4
TYPE F F F U
COUNT 1 1 1 1
WIDTH 1199
HEIGHT 1
VIEWPOINT 0 0 0 1 0 0 0
POINTS 1199
DATA ascii
-0.15867972 -0.89234596 3.0840001 1449001
-0.14147389 -0.88540167 3.0600002 2040888
-0.12558495 -0.88598031 3.062 2040634
-0.10938875 -0.88424432 3.0560002 2170164
-0.093346924 -0.88337624 3.0530002 2367271
-0.077209629 -0.88106143 3.0450001 2104101
-0.061337076 -0.88135082 3.0460002 1646646
-0.045812104 -0.88858443 3.0710001 2172974
-0.029841904 -0.89032054 3.0770001 1780015
-0.013795635 -0.89118862 3.0800002 1515812
0.002279731 -0.89118862 3.0800002 2897467
0.018349137 -0.8908993 3.0790002 1579554
0.034352209 -0.8891632 3.0730002 1579028
0.050276261 -0.88713777 3.0660002 1710363
0.066235319 -0.88655907 3.0640001 1842474
0.081556261 -0.87932533 3.039 2763576
0.097577915 -0.88077211 3.0440001 1644070
0.11335356 -0.87990403 3.0410001 2104873
0.12901291 -0.87845737 3.0360003 1840927
0.14447691 -0.87614256 3.0280001 2042160
0.16017501 -0.87556392 3.0260003 2305843
0.17625929 -0.87701058 3.0310001 3027252
0.19169869 -0.87527448 3.0250001 3223350
0.21050499 -0.88800579 3.0690002 3159356
0.22932771 -0.89900094 3.1070001 6183015
0.25139219 -0.92041266 3.1810002 12300220
0.27591404 -0.94761121 3.2750001 12300205
0.30034354 -0.97133768 3.3570001 12300721
0.32742804 -1.0005617 3.4580002 12168882
0.35266957 -1.0213947 3.5300002 12103604
0.38076517 -1.0480146 3.6220002 12168370
0.4019866 -1.0540909 3.6430001 12301486
0.42608526 -1.0668222 3.6870003 12365747
0.44532871 -1.0668222 3.6870003 12299954
0.46457219 -1.0668222 3.6870003 12234675
0.48381564 -1.0668222 3.6870003 12629172
0.50606084 -1.0731878 3.7090001 12629170
0.53193545 -1.0864978 3.7550001 11908527
0.55843723 -1.1000972 3.8020003 11974577
0.57828093 -1.1000972 3.8020003 12039612
0.59434891 -1.0931528 3.7780001 12366261
0.60659063 -1.0798428 3.7320001 12891826
0.6222105 -1.0731878 3.7090001 12563128
0.63395792 -1.0604565 3.6650002 12958137
0.64916623 -1.0540909 3.6430001 12366263
0.66432834 -1.0480146 3.6220002 12891323
0.67908263 -1.041649 3.6000001 12891325
0.69787198 -1.041649 3.6000001 12694195
0.71666139 -1.041649 3.6000001 12957367
0.73994517 -1.0480146 3.6220002 12695990
0.75884944 -1.0480146 3.6220002 12630197
0.78226292 -1.0540909 3.6430001 12566210
0.80127674 -1.0540909 3.6430001 12695479
0.82029063 -1.0540909 3.6430001 12891572
0.84437293 -1.0604565 3.6650002 13154994
0.86868501 -1.0668222 3.6870003 13089721
0.89322656 -1.0731878 3.7090001 12630199
0.92390299 -1.0864978 3.7550001 13025727
0.95531094 -1.1000972 3.8020003 13154998
0.98105365 -1.1067522 3.8250003 13418170
1.0138408 -1.1209301 3.8740001 12826812
1.0340604 -1.1209301 3.8740001 13024704
1.0474763 -1.1136965 3.8490002 13089975
1.0675653 -1.1136965 3.8490002 12958389
1.0876542 -1.1136965 3.8490002 12892605
1.0942166 -1.1000972 3.8020003 12761023
1.1070279 -1.0931528 3.7780001 12891321
1.1198868 -1.0864978 3.7550001 12761783
1.1255261 -1.0731878 3.7090001 12433588
1.1380935 -1.0668222 3.6870003 12104877
1.1714623 -1.0798428 3.7320001 12562861
1.2132788 -1.1000972 3.8020003 12233381
1.2331225 -1.1000972 3.8020003 11905701
1.2684551 -1.1136965 3.8490002 11840422
1.2969134 -1.1209301 3.8740001 11445161
1.3171329 -1.1209301 3.8740001 11379881
1.3373524 -1.1209301 3.8740001 10721951
1.3404008 -1.1067522 3.8250003 11049368
1.3436488 -1.0931528 3.7780001 11574431
1.3467672 -1.0798428 3.7320001 11638425
1.3417176 -1.0604565 3.6650002 11052187
1.3367112 -1.041649 3.6000001 11510943
1.3129529 -1.0089529 3.4870002 11248796
1.3109199 -0.99361742 3.4340003 12035499
1.2711849 -0.95050472 3.2850001 11902382
1.2518569 -0.92359543 3.1920002 10985113
1.2426856 -0.9047879 3.1270001 5391957
1.232433 -0.88569099 3.0610001 4340548
1.2382132 -0.87845737 3.0360003 3289150
1.255298 -0.87932533 3.039 3354418
1.269068 -0.87787867 3.0340002 3287344
1.2823623 -0.87614256 3.0280001 3156537
1.2964513 -0.87498516 3.0240002 5394024
1.3113666 -0.87440646 3.0220001 3290942
1.3267001 -0.87411714 3.0210001 3615278
1.3380237 -0.87122369 3.0110002 5985623
1.3528396 -0.87064493 3.0090001 3355963
1.3680897 -0.87035561 3.0080001 2698035
1.3791889 -0.86746216 2.9980001 2106166
1.3943712 -0.86717284 2.9970002 2106164
1.386019 -0.8524161 2.9460001 3815744
1.3880756 -0.8443144 2.9180002 3030067
1.377336 -0.82868963 2.8640001 4266268
1.3777001 -0.82000923 2.8340001 7418170
1.3851213 -0.81566906 2.8190002 6825767
1.3948685 -0.81277555 2.809 6037023
1.3914652 -0.8023591 2.7730002 6627373
-0 -0 0 2574114
-0 -0 0 2574114
-0 -0 0 2574114
-0 -0 0 2574114
-0 -0 0 2574114
-2.5422347 -1.3586985 4.7820001 5063505
-2.5572832 -1.3802922 4.8580003 5524824
-2.5725803 -1.4024541 4.9360003 4932670
-2.546818 -1.4024541 4.9360003 5720124
-2.5414855 -1.4138193 4.9760003 6575185
-2.5155144 -1.4138193 4.9760003 5259323
-2.5100563 -1.4254684 5.0170002 5391172
-2.483871 -1.4254684 5.0170002 6570822
-2.4777708 -1.4371177 5.0580001 6114632
-2.4513717 -1.4371177 5.0580001 5918033
-2.4455881 -1.4493352 5.1010003 4798772
-2.4189646 -1.4493352 5.1010003 5525577
-2.3721743 -1.4371177 5.0580001 5651766
-2.3457751 -1.4371177 5.0580001 5588288
-2.3005753 -1.4254684 5.0170002 3160117
-2.2558036 -1.4138193 4.9760003 3091248
-2.2482052 -1.4254684 5.0170002 3088936
-2.2220201 -1.4254684 5.0170002 2631467
-2.1958351 -1.4254684 5.0170002 3090746
-2.1873806 -1.4371177 5.0580001 2563369
-2.1609817 -1.4371177 5.0580001 2630443
-2.1527295 -1.4493352 5.1010003 2697010
-2.1436117 -1.4612685 5.1430001 2104621
-2.1167688 -1.4612685 5.1430001 2168100
-2.089926 -1.4612685 5.1430001 2363932
-2.0630834 -1.4612685 5.1430001 1641490
-2.0362406 -1.4612685 5.1430001 918542
-2.009398 -1.4612685 5.1430001 1710111
-1.9825552 -1.4612685 5.1430001 1514013
-1.9724442 -1.4737703 5.1870003 1316630
-1.961874 -1.4862719 5.2310004 988439
-1.9345721 -1.4862719 5.2310004 1316380
-1.8912271 -1.4737703 5.1870003 1973540
-1.8483416 -1.4612685 5.1430001 1185827
-1.7768734 -1.4254684 5.0170002 1908771
-1.7224232 -1.4024541 4.9360003 1382175
-1.6564443 -1.3692112 4.8190002 1055272
-1.5937177 -1.3376731 4.7080002 1186608
-1.4998202 -1.2785745 4.5 1448988
-1.4139996 -1.2245903 4.3100004 1645597
-1.3534076 -1.1910633 4.1920004 3748914
-1.2959533 -1.159241 4.0800004 4340533
-1.2581005 -1.1441822 4.0270004 3747378
-1.228788 -1.1365106 4 3747369
-1.2000595 -1.1291233 3.9740002 3418664
-1.1718992 -1.1220201 3.9490001 3287330
-1.1437082 -1.1146328 3.9230001 3421482
-1.1092033 -1.1007105 3.8740001 4141875
-1.0819564 -1.0936074 3.8490002 6380634
-1.0687643 -1.1007105 3.8740001 6578023
-1.048545 -1.1007105 3.8740001 6774371
-1.0413322 -1.1146328 3.9230001 6117211
-1.020857 -1.1146328 3.9230001 6444891
-1.0003817 -1.1146328 3.9230001 7761268
-0.9676671 -1.1007105 3.8740001 6250082
-0.94133353 -1.0936074 3.8490002 6184544
-0.90999526 -1.0802534 3.8020003 6645095
-0.88453245 -1.0734344 3.7780001 6709348
-0.85428429 -1.0603645 3.7320001 6513000
-0.82473999 -1.0475787 3.6870003 6119019
-0.79588389 -1.0350771 3.6430001 6841197
-0.7723918 -1.0291104 3.6220002 6249832
-0.7489109 -1.0228596 3.6000001 6382961
-0.7258625 -1.0168929 3.5790002 6383215
-0.70718271 -1.0168929 3.5790002 6448238
-0.68850291 -1.0168929 3.5790002 5593445
-0.66982311 -1.0168929 3.5790002 6776683
-0.65114337 -1.0168929 3.5790002 7234922
-0.63617456 -1.0228596 3.6000001 7103604
-0.61378384 -1.0168929 3.5790002 6907508
-0.59061456 -1.0092216 3.5520003 6448238
-0.57191455 -1.0089374 3.5510001 6581877
-0.54917336 -1.0012659 3.5240002 6778484
-0.50939274 -0.9609198 3.3820002 5725283
-0.4596079 -0.89812756 3.1610003 6514031
-0.42404521 -0.85948616 3.0250001 6117472
-0.39516574 -0.83192581 2.9280002 2694442
-0.37715909 -0.82595909 2.9070001 2168098
-0.35737935 -0.81544638 2.8700001 2233891
-0.34025258 -0.81033212 2.8520002 2299168
-0.32536721 -0.81033212 2.8520002 2626332
-0.31505412 -0.82226545 2.8940001 9340547
-0.30450994 -0.8347671 2.9380002 2627363
-0.29271907 -0.84499568 2.9740002 2369320
-0.28185728 -0.85920209 3.0240002 2633014
-0.27064955 -0.87397671 3.0760002 2238002
-0.2560021 -0.87880689 3.0930002 1447464
-0.24055684 -0.88136405 3.1020002 1512993
-0.22487296 -0.88335294 3.1090002 2896434
-0.20851199 -0.88278466 3.1070001 1382947
-0.19198626 -0.88136405 3.1020002 1842474
-0.17568272 -0.88079578 3.1000001 2040103
-0.15934862 -0.87994337 3.0970001 1317413
-0.14133519 -0.86857826 3.0570002 3033412
-0.12554392 -0.8697148 3.0610001 5860448
-0.10935295 -0.86800998 3.0550001 6711137
-0.093071744 -0.86488461 3.0440001 5199187
-0.077412486 -0.86744177 3.0530002 5988707
-0.061618991 -0.86943066 3.0600002 6579050
-0.045961283 -0.87539732 3.0810001 3753537
-0.030006776 -0.87909096 3.0940001 2371636
-0.013907612 -0.88221645 3.1050003 1910054
0.0023034166 -0.88420534 3.1120002 2633010
0.018545799 -0.88420534 3.1120002 2039335
0.034743465 -0.88306874 3.108 1644829
0.050866585 -0.88136405 3.1020002 2039076
0.066429876 -0.87312436 3.0730002 1842728
0.08249554 -0.87340844 3.0740001 2764596
0.098122858 -0.8697148 3.0610001 1578525
0.11376358 -0.86715764 3.052 1973283
0.12935287 -0.86488461 3.0440001 2565931
0.14490634 -0.86289573 3.0370002 2239015
0.16059847 -0.86204332 3.0340002 2502189
0.1764919 -0.86232746 3.0350001 3158838
0.19378994 -0.86886239 3.0580001 3092275
0.21173961 -0.87710208 3.0870001 3420733
0.2337563 -0.89983231 3.1670001 4207931
0.25376305 -0.91233397 3.2110002 10390676
0.27919972 -0.94159907 3.3140001 12366764
0.30553269 -0.97029597 3.4150002 11906223
0.33310926 -0.99956113 3.5180001 12169648
0.36186096 -1.0291104 3.6220002 12497318
0.38528556 -1.041328 3.6650002 12431791
0.40926936 -1.0538296 3.7090001 12235958
0.42862764 -1.0538296 3.7090001 12103604
0.44798595 -1.0538296 3.7090001 12234675
0.46734425 -1.0538296 3.7090001 11378335
0.4867025 -1.0538296 3.7090001 13417918
0.50919896 -1.0603645 3.7320001 12104889
0.53519368 -1.0734344 3.7780001 12105906
0.55843723 -1.0802534 3.8020003 12826799
0.57463056 -1.0734344 3.7780001 12498100
0.59073061 -1.0668994 3.7550001 12497333
0.60285228 -1.0538296 3.7090001 12695729
0.6185199 -1.0475787 3.6870003 12827565
0.63395792 -1.041328 3.6650002 12564908
0.64916623 -1.0350771 3.6430001 12431540
0.66432834 -1.0291104 3.6220002 12497335
0.67908263 -1.0228596 3.6000001 12565941
0.69380105 -1.0168929 3.5790002 13088951
0.71666139 -1.0228596 3.6000001 12892344
0.73994517 -1.0291104 3.6220002 12696244
0.75884944 -1.0291104 3.6220002 13023662
0.78226292 -1.0350771 3.6430001 12432571
0.80127674 -1.0350771 3.6430001 12761272
0.82029063 -1.0350771 3.6430001 12630969
0.83930439 -1.0350771 3.6430001 12761021
0.85831821 -1.0350771 3.6430001 13088440
0.88263023 -1.041328 3.6650002 12892093
0.9125849 -1.0538296 3.7090001 12892093
0.94350141 -1.0668994 3.7550001 12759988
0.97515452 -1.0802534 3.8020003 12629686
1.0010175 -1.0867883 3.8250003 12695992
1.0209812 -1.0867883 3.8250003 12432818
1.0346856 -1.0802534 3.8020003 13024704
1.0545293 -1.0802534 3.8020003 12892858
1.0808723 -1.0867883 3.8250003 12893120
1.0942166 -1.0802534 3.8020003 12564404
1.1070279 -1.0734344 3.7780001 12827576
1.1267463 -1.0734344 3.7780001 12170678
1.1325057 -1.0603645 3.7320001 12103606
1.1380935 -1.0475787 3.6870003 11773874
1.1714623 -1.0603645 3.7320001 12101545
1.2056199 -1.0734344 3.7780001 12232359
1.2253383 -1.0734344 3.7780001 11902630
1.2605458 -1.0867883 3.8250003 11508385
1.2885441 -1.0936074 3.8490002 10787492
1.3086331 -1.0936074 3.8490002 10131615
1.3287221 -1.0936074 3.8490002 10655643
1.3404008 -1.0867883 3.8250003 11047826
1.3436488 -1.0734344 3.7780001 11704468
1.3467672 -1.0603645 3.7320001 11441300
1.3417176 -1.041328 3.6650002 11246747
1.3367112 -1.0228596 3.6000001 10785949
1.3129529 -0.99075317 3.4870002 12299706
1.3097746 -0.97484207 3.4310002 11116447
1.2735066 -0.93506414 3.2910001 11510941
1.2522491 -0.90721959 3.1930001 11441548
1.2403011 -0.88676244 3.1210001 4801353
1.2408881 -0.87568152 3.0820003 3815737
1.2414758 -0.86488461 3.0440001 3354938
1.2577764 -0.86516875 3.0450001 3749953
1.2711594 -0.86346394 3.039 3223602
1.2844799 -0.86175925 3.0330002 3221565
1.2973088 -0.85977036 3.0260003 4144452
1.3113666 -0.85863382 3.0220001 4207666
1.3262609 -0.85806555 3.0200002 3618360
1.3362463 -0.85437191 3.0070002 3814971
1.3523901 -0.85465604 3.0080001 4732993
1.3653607 -0.85295123 3.0020001 2170916
1.3773488 -0.85067827 2.9940002 3948620
1.3711082 -0.8373242 2.947 6048867
1.3789619 -0.83277822 2.9310002 2829135
1.3742805 -0.82084483 2.8890002 2239539
1.3706032 -0.80976385 2.8500001 4989993
1.3830475 -0.80834317 2.845 6301999
1.3841386 -0.80038762 2.8170002 6363931
1.393379 -0.79726225 2.8060002 6955298
1.3849419 -0.78419238 2.7600002 8007236
-0 -0 0 2574114
-0 -0 0 2574114
-0 -0 0 2574114
-0 -0 0 2574114
-0 -0 0 2574114
-2.5826383 -1.3549371 4.8580003 5458779
-2.5983429 -1.3766919 4.9360003 5195087
-2.5934279 -1.3878483 4.9760003 7234144
-2.5674567 -1.3878483 4.9760003 5327165
-2.5414855 -1.3878483 4.9760003 5655096
-2.5155144 -1.3878483 4.9760003 5524294
-2.5100563 -1.3992835 5.0170002 5590628
-2.483871 -1.3992835 5.0170002 5524572
-2.4576859 -1.3992835 5.0170002 5918033
-2.4315009 -1.3992835 5.0170002 6247765
-2.4249725 -1.4107187 5.0580001 5920848
-2.3791306 -1.3992835 5.0170002 5591100
-2.3529456 -1.3992835 5.0170002 5521452
-2.3267605 -1.3992835 5.0170002 4337453
-2.2817745 -1.3878483 4.9760003 4079170
-2.2558036 -1.3878483 4.9760003 3814705
-2.2298324 -1.3878483 4.9760003 3552315
-2.2220201 -1.3992835 5.0170002 1908019
-2.1958351 -1.3992835 5.0170002 3222071
-2.1873806 -1.4107187 5.0580001 2367012
-2.179353 -1.4227118 5.1010003 1778218
-2.1527295 -1.4227118 5.1010003 2434861
-2.1436117 -1.434426 5.1430001 2696763
-2.1167688 -1.434426 5.1430001 1841447
-2.089926 -1.434426 5.1430001 1707033
-2.0630834 -1.434426 5.1430001 1641490
-2.0362406 -1.434426 5.1430001 1379863
-2.0265892 -1.446698 5.1870003 1315864
-1.9995166 -1.446698 5.1870003 1447450
-2.0062878 -1.4715208 5.276 1578777
-1.9960032 -1.4843506 5.322 1317404
-1.9682263 -1.4843506 5.322 1251107
-1.9236773 -1.4715208 5.276 1251109
-1.8799679 -1.45897 5.2310004 1643818
-1.8066237 -1.4227118 5.1010003 1973290
-1.7363813 -1.3878483 4.9760003 1383195
-1.6698499 -1.3549371 4.8580003 1252640
-1.5937177 -1.3131008 4.7080002 1449001
-1.4998202 -1.2550879 4.5 1514009
-1.4241697 -1.2107414 4.3410001 1448736
-1.3534076 -1.1691841 4.1920004 2039330
-1.287377 -1.1304158 4.053 4208947
-1.2496651 -1.1156336 4 4010552
-1.220801 -1.1083821 3.9740002 3550502
-1.2000595 -1.1083821 3.9740002 3616297
-1.1641835 -1.0941577 3.9230001 3682349
-1.1294229 -1.0804912 3.8740001 3092519
-1.0951737 -1.0668247 3.8250003 4470337
-1.07521 -1.0668247 3.8250003 7103336
-1.048901 -1.0604098 3.8020003 6184285
-1.0290574 -1.0604098 3.8020003 6446174
-1.0153189 -1.0668247 3.8250003 6184037
-1.0016005 -1.0735185 3.8490002 6380385
-0.97539133 -1.0668247 3.8250003 6514029
-0.94968259 -1.0604098 3.8020003 5726568
-0.92396933 -1.0537159 3.7780001 5263960
-0.89324093 -1.0408862 3.7320001 6316130
-0.86322689 -1.0283353 3.6870003 6316650
-0.83894747 -1.0221994 3.6650002 6252138
-0.81981885 -1.0221994 3.6650002 6447464
-0.79588389 -1.0160633 3.6430001 6447468
-0.77687001 -1.0160633 3.6430001 6120293
-0.75785625 -1.0160633 3.6430001 5856869
-0.73884243 -1.0160633 3.6430001 6316650
-0.71982855 -1.0160633 3.6430001 6314853
-0.70504701 -1.0221994 3.6650002 6248547
-0.68180096 -1.0160633 3.6430001 6841449
-0.66278714 -1.0160633 3.6430001 6645093
-0.64377332 -1.0160633 3.6430001 6185316
-0.62475955 -1.0160633 3.6430001 7301496
-0.60574567 -1.0160633 3.6430001 6449015
-0.58334965 -1.0102063 3.6220002 6514808
-0.55774444 -0.99821323 3.5790002 6910840
-0.51496559 -0.95358789 3.4190001 6119791
-0.47952759 -0.91983992 3.2980001 6579572
-0.42488629 -0.84537143 3.0310001 5328728
-0.40258858 -0.83198375 2.983 2761518
-0.38066214 -0.81831729 2.9340003 2168359
-0.36074144 -0.80799764 2.8970001 2170662
-0.34526327 -0.80716091 2.8940001 2366758
-0.33015871 -0.80716091 2.8940001 3483694
-0.31559846 -0.80855548 2.8990002 3284511
-0.30440629 -0.81915396 2.937 3024168
-0.29291588 -0.83003139 2.9760001 4212807
-0.28167084 -0.84286124 3.0220001 4213077
-0.26906574 -0.85290194 3.0580001 4476249
-0.25575382 -0.86182702 3.0900002 1119784
-0.24016909 -0.86377937 3.0970001 1579050
-0.2245113 -0.86573172 3.1040001 1974564
-0.20824355 -0.86545283 3.1030002 1447716
-0.19186248 -0.8646161 3.1000001 1973540
-0.17528602 -0.86266375 3.0930002 1645345
-0.15852538 -0.85931683 3.0810001 1712425
-0.14124273 -0.85206521 3.0550001 4544850
-0.12496974 -0.84983397 3.0470002 5135706
-0.10863706 -0.84648705 3.0350001 6512480
-0.092460237 -0.84341908 3.0240002 7039851
-0.07743784 -0.85178632 3.0540001 6381923
-0.061659262 -0.85401756 3.062 6975348
-0.045916528 -0.8584801 3.0780001 2304297
-0.029958285 -0.86154813 3.0890002 2239537
-0.013907612 -0.86601067 3.1050003 1909287
0.0023034166 -0.86796302 3.1120002 1973540
0.018557716 -0.8685208 3.1140001 2499627
0.03478818 -0.86796302 3.1120002 1644577
0.050899379 -0.86573172 3.1040001 1645347
0.066927068 -0.86350048 3.0960002 1974310
0.082924925 -0.86182702 3.0900002 1646115
0.098667808 -0.8584801 3.0780001 2235939
0.11391269 -0.85234416 3.0560002 2105119
0.12969281 -0.85122848 3.052 1382947
0.14533576 -0.84955508 3.0460002 1909541
0.16123366 -0.84955508 3.0460002 2500904
0.17724787 -0.85011286 3.0480001 3159354
0.19607131 -0.86294264 3.0940001 2631470
0.21482621 -0.87354118 3.1320002 3552572
0.23338726 -0.88190842 3.1620002 4208962
0.25724033 -0.90784687 3.2550001 11776690
0.28256968 -0.93545878 3.3540001 9273211
0.30911139 -0.96362859 3.4550002 12629946
0.33689675 -0.99235612 3.5580001 12103080
0.36615694 -1.0221994 3.6650002 12627371
0.39474687 -1.0473011 3.7550001 11904166
0.41953146 -1.0604098 3.8020003 11117481
0.43937513 -1.0604098 3.8020003 12038832
0.45631999 -1.0537159 3.7780001 12102828
0.47603843 -1.0537159 3.7780001 12496816
0.49273872 -1.0473011 3.7550001 12430770
0.51547527 -1.0537159 3.7780001 12168118
0.53859353 -1.0604098 3.8020003 12432058
0.55843723 -1.0604098 3.8020003 12628652
0.57463056 -1.0537159 3.7780001 12367277
0.58711231 -1.0408862 3.7320001 12234928
0.59927648 -1.0283353 3.6870003 12628650
0.61482924 -1.0221994 3.6650002 12563627
0.6301524 -1.0160633 3.6430001 12235178
0.64542413 -1.0102063 3.6220002 12628919
0.66432834 -1.0102063 3.6220002 12826551
0.67908263 -1.0040703 3.6000001 12563377
0.69380105 -0.99821323 3.5790002 12956332
0.71666139 -1.0040703 3.6000001 14338256
0.73545074 -1.0040703 3.6000001 12300985
0.75884944 -1.0102063 3.6220002 13089984
0.78226292 -1.0160633 3.6430001 12696776
0.80127674 -1.0160633 3.6430001 12432058
0.82029063 -1.0160633 3.6430001 12564155
0.83446628 -1.0102063 3.6220002 12629433
0.85337049 -1.0102063 3.6220002 12958137
0.87733203 -1.0160633 3.6430001 12499383
0.90175891 -1.0221994 3.6650002 12564925
0.93194318 -1.0344713 3.7090001 13088700
0.96899885 -1.0537159 3.7780001 12761534
0.98871726 -1.0537159 3.7780001 12695741
1.0084357 -1.0537159 3.7780001 12827578
1.0346856 -1.0604098 3.8020003 12761532
1.0545293 -1.0604098 3.8020003 12893120
1.0808723 -1.0668247 3.8250003 12499381
1.0942166 -1.0604098 3.8020003 12497847
1.1070279 -1.0537159 3.7780001 12628919
1.1267463 -1.0537159 3.7780001 12562094
1.1394851 -1.0473011 3.7550001 12167598
1.1448843 -1.0344713 3.7090001 12233393
1.1714623 -1.0408862 3.7320001 11640994
1.1909406 -1.0408862 3.7320001 11641507
1.2104189 -1.0408862 3.7320001 11773345
1.2374769 -1.0473011 3.7550001 11180443
1.2805096 -1.0668247 3.8250003 10982813
1.3086331 -1.0735185 3.8490002 10590351
1.3373524 -1.0804912 3.8740001 10460048
1.3488111 -1.0735185 3.8490002 10784652
1.3521845 -1.0604098 3.8020003 11311507
1.3467672 -1.0408862 3.7320001 10850960
1.3417176 -1.0221994 3.6650002 10126219
1.3289138 -0.99821323 3.5790002 10850706
1.3121998 -0.97199583 3.4850001 10982041
1.3021398 -0.95135665 3.4110003 10914451
1.2777632 -0.92095554 3.302 11113365
1.2542101 -0.89194912 3.1980002 10785685
1.2414933 -0.87130988 3.1240001 4929618
1.2465248 -0.86350048 3.0960002 3418426
1.2467778 -0.85262305 3.0570002 3091521
1.2606678 -0.85122848 3.052 2370369
1.2740874 -0.84955508 3.0460002 2762799
1.2870208 -0.84760267 3.039 3747139
1.3007386 -0.84620816 3.0340002 3943743
1.3126683 -0.84369797 3.0250001 3944247
1.3280176 -0.84341908 3.0240002 4408903
1.3429118 -0.84286124 3.0220001 3685698
1.3528396 -0.83923542 3.0090001 3819346
1.3644512 -0.83672529 3.0000002 4214104
1.3745886 -0.83337837 2.9880002 5331308
1.3729694 -0.82305872 2.9510002 4142919
1.3756685 -0.81552815 2.924 2437443
1.3747561 -0.80604529 2.8900001 2174267
1.3734888 -0.79656243 2.8560002 4728879
1.3825614 -0.79321551 2.8440001 6432824
1.377751 -0.78205919 2.8040001 6167074
1.3745092 -0.77201849 2.7680001 6496039
1.3844401 -0.7695083 2.7590001 7151137
-0 -0 0 2574114
-0 -0 0 2574114
-0 -0 0 2574114
-0 -0 0 2574114
-0 -0 0 2574114
-2.5826383 -1.3295819 4.8580003 5458762
-2.5983429 -1.3509296 4.9360003 5394500
-2.5934279 -1.3618772 4.9760003 5196862
-2.546818 -1.3509296 4.9360003 5328980
-2.5210557 -1.3509296 4.9360003 4407624
-2.4952934 -1.3509296 4.9360003 6512218
-2.4695313 -1.3509296 4.9360003 5588820
-2.4635723 -1.3618772 4.9760003 5325910
-2.4376013 -1.3618772 4.9760003 6708065
-2.4116302 -1.3618772 4.9760003 5722455
-2.4053156 -1.3730984 5.0170002 5787977
-2.3791306 -1.3730984 5.0170002 5787454
-2.3529456 -1.3730984 5.0170002 5456952
-2.3267605 -1.3730984 5.0170002 4275510
-2.3005753 -1.3730984 5.0170002 3946804
-2.2558036 -1.3618772 4.9760003 3945773
-2.2482052 -1.3730984 5.0170002 2959930
-2.2401788 -1.3843195 5.0580001 2434861
-2.2137797 -1.3843195 5.0580001 3089951
-2.2059765 -1.3960882 5.1010003 2170142
-2.1972971 -1.4075832 5.1430001 1516341
-2.1704543 -1.4075832 5.1430001 2171169
-2.1436117 -1.4075832 5.1430001 3091248
-2.1348786 -1.4196255 5.1870003 2104101
-2.1078062 -1.4196255 5.1870003 1116693
-2.0807338 -1.4196255 5.1870003 1378066
-2.0710821 -1.4316679 5.2310004 855056
-2.0437801 -1.4316679 5.2310004 1579032
-2.0515571 -1.4565735 5.322 1052692
-2.0416529 -1.469437 5.3690004 1710622
-2.0496349 -1.4957111 5.4650002 1580837
-2.0211117 -1.4957111 5.4650002 1186847
-1.9925884 -1.4957111 5.4650002 1712425
-1.9126723 -1.4565735 5.322 1644577
-1.8214988 -1.4075832 5.1430001 2105629
-1.7224232 -1.3509296 4.9360003 988437
-1.6698499 -1.3295819 4.8580003 923157
-1.5937177 -1.2885284 4.7080002 1383195
-1.4998202 -1.231601 4.5 1514260
-1.4139996 -1.1796002 4.3100004 1383193
-1.3443676 -1.1396415 4.164 2631971
-1.287377 -1.109262 4.053 4602676
-1.2415423 -1.0876406 3.9740002 3418404
-1.2131211 -1.0807984 3.9490001 3353121
-1.19251 -1.0807984 3.9490001 3615779
-1.1567646 -1.0668403 3.8980002 3154458
-1.1221344 -1.0534295 3.8490002 3354408
-1.0951737 -1.0468609 3.8250003 3219239
-1.0687447 -1.0405661 3.8020003 6183517
-1.0422797 -1.0339975 3.7780001 6118749
-1.0163362 -1.0277027 3.7550001 5985886
-1.002843 -1.0339975 3.7780001 6578023
-0.97713941 -1.0277027 3.7550001 6709599
-0.95754099 -1.0277027 3.7550001 6316128
-0.93219763 -1.0214078 3.7320001 6643820
-0.9070943 -1.015113 3.7090001 6117476
-0.88247043 -1.0090919 3.6870003 6975598
-0.8529253 -0.99704951 3.6430001 7171441
-0.83894747 -1.0030707 3.6650002 6120041
-0.81489766 -0.99704951 3.6430001 6250855
-0.79588389 -0.99704951 3.6430001 6448236
-0.78156155 -1.0030707 3.6650002 5922662
-0.7715863 -1.015113 3.7090001 6316652
-0.75222796 -1.015113 3.7090001 6315882
-0.74195892 -1.0277027 3.7550001 7763067
-0.72236055 -1.0277027 3.7550001 7104621
-0.70276213 -1.0277027 3.7550001 6643818
-0.68316382 -1.0277027 3.7550001 6316130
-0.65950096 -1.0214078 3.7320001 7238002
-0.63607824 -1.015113 3.7090001 6906992
-0.61671996 -1.015113 3.7090001 6579822
-0.59027511 -1.0030707 3.6650002 5791591
-0.56101704 -0.98528087 3.6000001 6122089
-0.51948416 -0.94395381 3.4490001 5661286
-0.48490742 -0.91275328 3.3350003 5988205
-0.42586756 -0.83146757 3.0380001 6710638
-0.40312845 -0.81750947 2.9870002 1840666
-0.38001341 -0.80163544 2.9290001 2235174
-0.36198667 -0.7956143 2.9070001 1843498
-0.34633702 -0.79451954 2.9030001 1447196
-0.32970238 -0.79096156 2.8900001 2498344
-0.31919101 -0.80245656 2.9320002 2563617
-0.3068938 -0.81039357 2.9610002 2499879
-0.29291588 -0.81449884 2.9760001 2566967
-0.28148445 -0.82654119 3.0200002 2171959
-0.26827389 -0.8344782 3.0490003 2041138
-0.25525719 -0.84405726 3.0840001 988450
-0.23978135 -0.84624684 3.0920002 1777966
-0.22371568 -0.84652048 3.0930002 1909804
-0.20750535 -0.84624684 3.0920002 1448999
-0.19118169 -0.84542578 3.0890002 2172459
-0.17454928 -0.84296256 3.0800002 1382943
-0.15806229 -0.84077299 3.072 1909037
-0.14128897 -0.83639401 3.0560002 4145999
-0.12509277 -0.83475184 3.0500002 7566715
-0.10838649 -0.8287307 3.0280001 6054246
-0.092521392 -0.82818335 3.0260003 6447965
-0.076829292 -0.82927811 3.0300002 7566446
-0.061155844 -0.83119392 3.0370002 5855830
-0.045677844 -0.83803612 3.062 3486002
-0.029744921 -0.83940458 3.0670002 2238769
-0.013889696 -0.84871 3.1010001 2370092
0.0023004557 -0.85062581 3.108 2434091
0.018539838 -0.85144687 3.1110001 2039333
0.034777001 -0.85144687 3.1110001 1184028
0.05080099 -0.84788889 3.098 2238254
0.067035154 -0.84871 3.1010001 1776931
0.083166458 -0.84816265 3.0990002 1844261
0.099116594 -0.84624684 3.0920002 1712421
0.11521731 -0.84597307 3.0910001 2236205
0.1298628 -0.83639401 3.0560002 2303277
0.14566976 -0.83557296 3.0530002 2896434
0.161763 -0.83639401 3.0560002 2500904
0.17806201 -0.83803612 3.062 2831676
0.19619806 -0.8473416 3.0960002 3225151
0.21516915 -0.85856277 3.1370001 3749953
0.23700397 -0.87881583 3.2110002 5525072
0.26000637 -0.90043724 3.2900002 11578281
0.28492865 -0.92561668 3.3820002 12104105
0.31242171 -0.95572245 3.4920001 12302002
0.33623394 -0.97187012 3.5510001 12168871
0.36615694 -1.0030707 3.6650002 11839908
0.39474687 -1.0277027 3.7550001 12431023
0.41953146 -1.0405661 3.8020003 12300207
0.44203311 -1.0468609 3.8250003 12496814
0.46199682 -1.0468609 3.8250003 12497838
0.48196059 -1.0468609 3.8250003 12431793
0.50192428 -1.0468609 3.8250003 12432569
0.51874989 -1.0405661 3.8020003 11908527
0.53859353 -1.0405661 3.8020003 12105136
0.55843723 -1.0405661 3.8020003 12300468
0.56763399 -1.0214078 3.7320001 12104885
0.58349395 -1.015113 3.7090001 12235958
0.59212476 -0.99704951 3.6430001 12893106
0.60761571 -0.99130207 3.6220002 12300719
0.62651992 -0.99130207 3.6220002 12235441
0.64542413 -0.99130207 3.6220002 12693431
0.66818005 -0.99704951 3.6430001 12694195
0.68719387 -0.99704951 3.6430001 12562857
0.69787198 -0.98528087 3.6000001 12236211
0.71666139 -0.98528087 3.6000001 11512750
0.73545074 -0.98528087 3.6000001 12037547
0.75424016 -0.98528087 3.6000001 12366514
0.77775359 -0.99130207 3.6220002 12104372
0.79665786 -0.99130207 3.6220002 12499132
0.81556207 -0.99130207 3.6220002 11643825
0.83446628 -0.99130207 3.6220002 12628919
0.85337049 -0.99130207 3.6220002 12892091
0.87733203 -0.99704951 3.6430001 12891843
0.90175891 -1.0030707 3.6650002 12762555
0.93194318 -1.015113 3.7090001 12630716
0.96309972 -1.0277027 3.7550001 12433072
0.98269808 -1.0277027 3.7550001 12499635
1.0084357 -1.0339975 3.7780001 13156030
1.0281541 -1.0339975 3.7780001 12628921
1.0478727 -1.0339975 3.7780001 12563126
1.0743729 -1.0405661 3.8020003 12563377
1.0942166 -1.0405661 3.8020003 12366263
1.1140604 -1.0405661 3.8020003 11907759
1.1267463 -1.0339975 3.7780001 11841183
1.1394851 -1.0277027 3.7550001 11315870
1.1519839 -1.0214078 3.7320001 11708584
1.1714623 -1.0214078 3.7320001 11247769
1.1836009 -1.015113 3.7090001 11246488
1.1958239 -1.0090919 3.6870003 10983312
1.2298973 -1.0214078 3.7320001 10588806
1.2647752 -1.0339975 3.7780001 11113105
1.3086331 -1.0534295 3.8490002 10654864
1.3456376 -1.0668403 3.8980002 10129290
1.3575718 -1.0602716 3.8740001 9799822
1.3603644 -1.0468609 3.8250003 10389904
1.3467672 -1.0214078 3.7320001 10520714
1.3417176 -1.0030707 3.6650002 10652049
1.3289138 -0.97953343 3.5790002 10390927
1.3121998 -0.95380664 3.4850001 10194829
1.3021398 -0.93355364 3.4110003 10522775
1.2777632 -0.90372151 3.302 10392208
1.2655835 -0.88319486 3.2270002 10064019
1.2522234 -0.86239451 3.1510003 5194837
1.2461221 -0.84706783 3.095 4143171
1.2508563 -0.83940458 3.0670002 3026750
1.2581896 -0.83365715 3.0460002 2632773
1.2732508 -0.83310974 3.0440001 3354938
1.2882913 -0.83256233 3.0420001 4800329
1.3084555 -0.83529919 3.052 5392216
1.3230829 -0.8344782 3.0490003 9142419
1.3346049 -0.83174127 3.039 9078427
1.3455782 -0.8287307 3.0280001 3886940
1.3546381 -0.82462537 3.0130002 4270673
1.3658156 -0.82188851 3.0030003 3415616
1.3699882 -0.81504625 2.9780002 4401487
1.3729694 -0.80765665 2.9510002 4533066
1.3747276 -0.79971963 2.9220002 7237266
1.3752317 -0.79123527 2.891 7113638
1.3672369 -0.77809823 2.8430002 3481159
1.3679774 -0.77016121 2.8140001 4729161
1.367924 -0.76195055 2.7840002 5381431
1.373516 -0.75702411 2.766 6892089
1.3718954 -0.7482661 2.7340002 6822685
-0 -0 0 2574114
-0 -0 0 2574114
-0 -0 0 2574114
-0 -0 0 2574114
-2.5826383 -1.3042265 4.8580003 5457998
-2.5983429 -1.3251672 4.9360003 5786449
-2.5725803 -1.3251672 4.9360003 4601654
-2.546818 -1.3251672 4.9360003 5391953
-2.5006258 -1.3144284 4.8960004 5852769
-2.4750721 -1.3144284 4.8960004 5392969
-2.4495189 -1.3144284 4.8960004 5721921
-2.4437687 -1.3251672 4.9360003 6708564
-2.4180064 -1.3251672 4.9360003 5986138
-2.3922441 -1.3251672 4.9360003 5328987
-2.4053156 -1.3469132 5.0170002 6776429
-2.3791306 -1.3469132 5.0170002 5722182
-2.3721743 -1.3579205 5.0580001 5261624
-2.3457751 -1.3579205 5.0580001 4208182
-2.3193762 -1.3579205 5.0580001 3483945
-2.2929771 -1.3579205 5.0580001 4207668
-2.2858469 -1.3694648 5.1010003 3290944
-2.2592237 -1.3694648 5.1010003 3025453
-2.2509825 -1.3807404 5.1430001 2761768
-2.2431681 -1.3925531 5.1870003 2170916
-2.2160957 -1.3925531 5.1870003 2040357
-2.1890233 -1.3925531 5.1870003 2301478
-2.1802902 -1.4043659 5.2310004 2958895
-2.1529882 -1.4043659 5.2310004 2497576
-2.1256862 -1.4043659 5.2310004 1773340
-2.1164355 -1.4164469 5.276 1312789
-2.107111 -1.4287965 5.322 985620
-2.0976975 -1.4414147 5.3690004 1184278
-2.1066818 -1.4671878 5.4650002 1383710
-2.1158047 -1.4937662 5.5640001 1383456
-2.1058922 -1.5074582 5.6150002 1250859
-2.0958171 -1.5214187 5.6670003 924188
-2.0472798 -1.5074582 5.6150002 1187101
-1.9640651 -1.4671878 5.4650002 1776931
-1.8526659 -1.4043659 5.2310004 1777434
-1.7363813 -1.335906 4.9760003 1186329
-1.6564443 -1.2937562 4.8190002 1055513
-1.5696832 -1.2448946 4.6370001 1383195
-1.4891549 -1.1995233 4.4680004 1383195
-1.4041572 -1.149051 4.2800002 1383193
-1.3353277 -1.1103913 4.1360002 3354406
-1.287377 -1.0881083 4.053 5129522
-1.2415423 -1.0668992 3.9740002 4206633
-1.2131211 -1.0601875 3.9490001 3549218
-1.1846586 -1.0532072 3.9230001 3351326
-1.1567646 -1.0464956 3.8980002 3287843
-1.1151375 -1.0268972 3.8250003 3353133
-1.0951737 -1.0268972 3.8250003 3153194
-1.0687447 -1.0207224 3.8020003 6117726
-1.0359344 -1.0081043 3.7550001 5986908
-1.0163362 -1.0081043 3.7550001 5921117
-0.99673784 -1.0081043 3.7550001 6448238
-0.97115427 -1.0019295 3.7320001 6184287
-0.95167589 -1.0019295 3.7320001 6184538
-0.92095733 -0.98984838 3.6870003 6511719
-0.89633346 -0.98394203 3.6650002 6248547
-0.87720478 -0.98394203 3.6650002 6381668
-0.8529253 -0.97803569 3.6430001 7367280
-0.83391148 -0.97803569 3.6430001 6511201
-0.81489766 -0.97803569 3.6430001 6184544
-0.80069023 -0.98394203 3.6650002 6315871
-0.78625309 -0.98984838 3.6870003 6250085
-0.776371 -1.0019295 3.7320001 6118503
-0.76622194 -1.0142791 3.7780001 5789277
-0.76053262 -1.0333405 3.8490002 6447457
-0.74525291 -1.0400522 3.8740001 6381668
-0.72503346 -1.0400522 3.8740001 6315873
-0.70026565 -1.0333405 3.8490002 6841437
-0.67593551 -1.0268972 3.8250003 5592150
-0.65202743 -1.0207224 3.8020003 6447464
-0.62819302 -1.0142791 3.7780001 5397081
-0.59027511 -0.98394203 3.6650002 5792357
-0.56101704 -0.96649146 3.6000001 5924456
-0.51993603 -0.92675793 3.4520001 5792359
-0.48548901 -0.89642084 3.3390002 6383215
-0.4268488 -0.8174907 3.0450001 5920613
-0.40380323 -0.80326182 2.9920001 4867659
-0.38208929 -0.79064375 2.9450002 1841699
-0.36260927 -0.78178424 2.9120002 1646630
-0.34741077 -0.78178424 2.9120002 1647652
-0.33301082 -0.78366351 2.9190001 2827559
-0.31875554 -0.78607976 2.9280002 1971733
-0.30668649 -0.7944023 2.9590001 1972767
-0.29271907 -0.79842937 2.9740002 2631220
-0.28139123 -0.81051046 3.0190001 2237234
-0.26818588 -0.81829607 3.0480001 1974830
-0.25517443 -0.82769257 3.0830002 1447716
-0.2395487 -0.82930338 3.0890002 1843498
-0.22378801 -0.83064574 3.0940001 1515562
-0.20743822 -0.8298403 3.0910001 1449769
-0.19105789 -0.82876641 3.0870001 1516575
-0.17454928 -0.82688713 3.0800002 1516579
-0.15811376 -0.82500786 3.0730002 1778218
-0.14147389 -0.82151777 3.0600002 2104878
-0.12517481 -0.81936997 3.052 3882559
-0.10849388 -0.81373215 3.0310001 5196871
-0.092613108 -0.81319517 3.029 7237224
-0.076880001 -0.81400055 3.0320001 6972771
-0.061397489 -0.81856459 3.0490003 4737100
-0.045633096 -0.82124931 3.0590003 2433068
-0.029725524 -0.82286006 3.0650001 2236716
-0.013871779 -0.83145112 3.0970001 5002073
0.0022952745 -0.83252501 3.1010001 3157818
0.018516 -0.83413583 3.1070001 1775908
0.034765825 -0.83494127 3.1100001 1447200
0.050833788 -0.83225656 3.1000001 1383708
0.067143239 -0.83386737 3.1060002 1053980
0.083568998 -0.83601511 3.1140001 1449253
0.099405095 -0.83252501 3.1010001 1318437
0.11544096 -0.83145112 3.0970001 2237486
0.13160506 -0.83145112 3.0970001 1710622
0.14733973 -0.82903486 3.0880001 2370601
0.16329804 -0.82822949 3.085 2567469
0.17858538 -0.82447088 3.0710001 2830906
0.19917652 -0.84380072 3.1430001 3291203
0.21798138 -0.85319722 3.1780002 3947330
0.24239209 -0.88165498 3.2840002 4339265
0.2665658 -0.90554881 3.3730001 12168621
0.28998354 -0.92407322 3.4420002 11578030
0.31510574 -0.9455508 3.5220001 12629946
0.33888519 -0.96085364 3.5790002 11971494
0.36395898 -0.97803569 3.6430001 11972008
0.38991109 -0.99575466 3.7090001 11903917
0.41434523 -1.0081043 3.7550001 12694447
0.43660158 -1.0142791 3.7780001 12496805
0.45921883 -1.0207224 3.8020003 12300707
0.48196059 -1.0268972 3.8250003 11972267
0.50192428 -1.0268972 3.8250003 12366263
0.51874989 -1.0207224 3.8020003 11776694
0.53859353 -1.0207224 3.8020003 11908276
0.55153388 -1.0081043 3.7550001 12366261
0.56413567 -0.99575466 3.7090001 12235441
0.57657194 -0.98394203 3.6650002 12367279
0.59212476 -0.97803569 3.6430001 12759222
0.60761571 -0.9723978 3.6220002 12168368
0.6301524 -0.97803569 3.6430001 11249576
0.64916623 -0.97803569 3.6430001 12366514
0.67221516 -0.98394203 3.6650002 12694447
0.69134384 -0.98394203 3.6650002 12759727
0.70213675 -0.9723978 3.6220002 12497847
0.72104102 -0.9723978 3.6220002 12038579
0.73994517 -0.9723978 3.6220002 12365998
0.75884944 -0.9723978 3.6220002 13156543
0.77775359 -0.9723978 3.6220002 12236473
0.79665786 -0.9723978 3.6220002 12104885
0.82029063 -0.97803569 3.6430001 12104374
0.83446628 -0.9723978 3.6220002 12301234
0.85831821 -0.97803569 3.6430001 12761008
0.88263023 -0.98394203 3.6650002 12826298
0.9125849 -0.99575466 3.7090001 12695992
0.93772233 -1.0019295 3.7320001 12695990
0.96309972 -1.0081043 3.7550001 12761008
0.98269808 -1.0081043 3.7550001 11905447
1.0084357 -1.0142791 3.7780001 11971756
1.0346856 -1.0207224 3.8020003 12564923
1.0545293 -1.0207224 3.8020003 11973039
1.0743729 -1.0207224 3.8020003 12301484
1.0942166 -1.0207224 3.8020003 12564654
1.1140604 -1.0207224 3.8020003 12365747
1.1267463 -1.0142791 3.7780001 12034717
1.1394851 -1.0081043 3.7550001 11709074
1.1590835 -1.0081043 3.7550001 12102579
1.1642426 -0.99575466 3.7090001 11510173
1.1765804 -0.98984838 3.6870003 11115663
1.1958239 -0.98984838 3.6870003 10852239
1.2223175 -0.99575466 3.7090001 10590353
1.2647752 -1.0142791 3.7780001 10458251
1.3171329 -1.0400522 3.8740001 10128007
1.3456376 -1.0464956 3.8980002 10786198
1.3659823 -1.0464956 3.8980002 10588808
1.3603644 -1.0268972 3.8250003 10849163
1.3467672 -1.0019295 3.7320001 10127235
1.3417176 -0.98394203 3.6650002 10260104
1.3211162 -0.95521569 3.5580001 9802130
1.3106937 -0.93454355 3.4810002 9863552
1.2998493 -0.91413987 3.4050002 10260624
1.2905333 -0.895347 3.3350003 9800585
1.2789178 -0.87548018 3.2610002 11047312
1.2744781 -0.86098284 3.2070003 10851208
1.2682666 -0.84568 3.1500001 5193280
1.2622758 -0.83091414 3.095 4014415
1.275125 -0.82876641 3.0870001 3620420
1.2878908 -0.82661873 3.0790002 3881539
1.2933733 -0.81990695 3.0540001 9798289
1.3101704 -0.82044387 3.0560002 6638690
1.3230829 -0.81856459 3.0490003 4471132
1.3346049 -0.81587988 3.039 4142417
1.3464669 -0.81346369 3.0300002 3814483
1.3442974 -0.8027249 2.9900002 4531796
1.3553549 -0.80004019 2.9800003 4006468
1.3663079 -0.79735541 2.97 3091262
1.3743651 -0.79305995 2.9540002 2889272
1.3714343 -0.78258961 2.9150002 3220043
1.3638151 -0.76970303 2.8670001 4862542
1.3571377 -0.75762188 2.822 5127769
1.3543657 -0.74795699 2.786 4864343
1.3561316 -0.74097681 2.7600002 4923958
1.3551428 -0.73265421 2.7290001 4529438
1.3688847 -0.73238575 2.7280002 5970206
-0 -0 0 2574114
-0 -0 0 2574114
-0 -0 0 2574114
-0 -0 0 2574114
-2.5619049 -1.2686045 4.8190002 5920095
-2.5772865 -1.2888749 4.8960004 6576479
-2.5725803 -1.2994049 4.9360003 4610633
-2.5261793 -1.2888749 4.8960004 5262933
-2.4812171 -1.2788713 4.8580003 6310227
-2.455862 -1.2788713 4.8580003 5591370
-2.4305069 -1.2788713 4.8580003 6509903
-2.4051516 -1.2788713 4.8580003 5721421
-2.3984118 -1.2888749 4.8960004 5723987
-2.3922441 -1.2994049 4.9360003 5196624
-2.4053156 -1.3207281 5.0170002 5722201
-2.3985734 -1.3315214 5.0580001 5588818
-2.3923411 -1.3428411 5.1010003 4866623
-2.3851962 -1.3538977 5.1430001 4011314
-2.3583534 -1.3538977 5.1430001 4077877
-2.3315105 -1.3538977 5.1430001 3749427
-2.3046679 -1.3538977 5.1430001 3025721
-2.2973127 -1.3654808 5.1870003 3092018
-2.2702405 -1.3654808 5.1870003 3813684
-2.2621963 -1.3770638 5.2310004 2301732
-2.2348943 -1.3770638 5.2310004 3486006
-2.2075922 -1.3770638 5.2310004 2105648
-2.1990461 -1.3889099 5.276 2434086
-2.1715093 -1.3889099 5.276 2429721
-2.1626651 -1.4010195 5.322 1969172
-2.1725957 -1.4257652 5.4160004 1905178
-2.1443281 -1.4257652 5.4160004 1378066
-2.135205 -1.4386643 5.4650002 988702
-2.1448448 -1.4647261 5.5640001 1185566
-2.1549723 -1.491841 5.6670003 791319
-2.1452723 -1.5057932 5.7200003 1710118
-2.1353889 -1.5200088 5.7740002 1184544
-2.0855637 -1.5057932 5.7200003 792343
-1.9996446 -1.4647261 5.5640001 1580835
-1.9015415 -1.4133924 5.3690004 1185816
-1.7800001 -1.3428411 5.1010003 1186329
-1.6564443 -1.2686045 4.8190002 1448469
-1.5578353 -1.2114792 4.6020002 1710871
-1.4674909 -1.1590923 4.4030004 1382427
-1.3943149 -1.1188148 4.25 1579283
-1.3353277 -1.0888044 4.1360002 2631446
-1.2791185 -1.0601101 4.0270004 3945762
-1.2415423 -1.0461578 3.9740002 4273191
-1.2131211 -1.0395765 3.9490001 3483164
-1.1846586 -1.032732 3.9230001 3746599
-1.1641835 -1.032732 3.9230001 3681322
-1.1294229 -1.0198327 3.8740001 3353384
-1.0951737 -1.0069335 3.8250003 3415846
-1.0687447 -1.0008787 3.8020003 5985625
-1.0359344 -0.9885059 3.7550001 5724765
-1.010111 -0.98245114 3.7320001 5527902
-0.99063265 -0.98245114 3.7320001 4212559
-0.96516913 -0.97639638 3.7090001 5527386
-0.94581079 -0.97639638 3.7090001 6514281
-0.92645258 -0.97639638 3.7090001 6513000
-0.90171391 -0.9706049 3.6870003 6447207
-0.88247043 -0.9706049 3.6870003 5987683
-0.8580761 -0.96481335 3.6650002 5790304
-0.83894747 -0.96481335 3.6650002 5921122
-0.81981885 -0.96481335 3.6650002 6973803
-0.80069023 -0.96481335 3.6650002 6250080
-0.78625309 -0.9706049 3.6870003 6644847
-0.776371 -0.98245114 3.7320001 6513777
-0.76622194 -0.99456066 3.7780001 5855329
-0.76053262 -1.0132514 3.8490002 7104106
-0.74986994 -1.0261507 3.8980002 6447716
-0.73420399 -1.032732 3.9230001 6644843
-0.70918047 -1.0261507 3.8980002 5988956
-0.68017668 -1.0132514 3.8490002 6318181
-0.65202743 -1.0008787 3.8020003 6381921
-0.62436867 -0.9885059 3.7550001 6317668
-0.59027511 -0.96481335 3.6650002 6185064
-0.5644455 -0.9534936 3.6220002 5989740
-0.52385211 -0.91558552 3.4780002 5067868
-0.48985097 -0.88689119 3.3690002 6645095
-0.4332971 -0.81370753 3.0910001 5065808
-0.40447804 -0.78896201 2.9970002 4078129
-0.38247851 -0.77606273 2.9480002 1710115
-0.36298284 -0.76737541 2.9150002 1251874
-0.34776866 -0.76737541 2.9150002 1516329
-0.33335307 -0.76921821 2.9220002 1645867
-0.31832007 -0.76974463 2.924 2170146
-0.30606461 -0.77737892 2.9530001 2235939
-0.29340804 -0.78474998 2.9810002 2170671
-0.28101841 -0.79370046 3.0150001 2303797
-0.26651412 -0.79738593 3.029 1907747
-0.25376737 -0.80712628 3.0660002 1710113
-0.2389283 -0.81107497 3.0810001 1777451
-0.22393267 -0.81502378 3.0960002 1646126
-0.20757245 -0.81423402 3.0930002 1120034
-0.19130546 -0.81370753 3.0910001 1449253
-0.1747193 -0.81160152 3.0830002 1776931
-0.15801084 -0.80844247 3.0710001 1777705
-0.14133519 -0.804757 3.0570002 2104878
-0.12484669 -0.80133474 3.0440001 1511460
-0.10856547 -0.79843903 3.0330002 2697010
-0.092674263 -0.79791248 3.0310001 2170664
-0.076880001 -0.79817569 3.0320001 2562854
-0.06117598 -0.79975522 3.0380001 2565945
-0.045648012 -0.80554676 3.0600002 2829117
-0.029715825 -0.80659974 3.0640001 2369072
-0.013741885 -0.80765271 3.0680001 1910583
0.0022730692 -0.80844247 3.0710001 2369070
0.018486205 -0.8166033 3.1020002 2303277
0.034743465 -0.81818277 3.108 1316900
0.050882984 -0.81686652 3.1030002 1646880
0.067208096 -0.81844604 3.1090002 2173226
0.083595842 -0.82002556 3.1150002 1317665
0.10004621 -0.82160503 3.1210001 1514279
0.11637284 -0.8218683 3.1220002 1974312
0.13190252 -0.81712979 3.1040001 2171173
0.14872342 -0.82055205 3.1170001 3422259
0.1648331 -0.81976229 3.1140001 2434861
0.180737 -0.81818277 3.108 2962238
0.19974686 -0.8297658 3.1520002 2633275
0.2200391 -0.84450787 3.2080002 3290942
0.24290876 -0.86635762 3.2910001 5457246
0.26759318 -0.89136642 3.3860002 11838886
0.29192126 -0.91216326 3.4650002 11708836
0.3151952 -0.92743176 3.5230002 11774888
0.33689675 -0.93664551 3.5580001 11840430
0.35966301 -0.94770205 3.6000001 12038051
0.38528556 -0.96481335 3.6650002 12497834
0.40926936 -0.97639638 3.7090001 12695743
0.43128562 -0.98245114 3.7320001 11644338
0.45354196 -0.9885059 3.7550001 11576747
0.47603843 -0.99456066 3.7780001 12170668
0.49575683 -0.99456066 3.7780001 11643304
0.51547527 -0.99456066 3.7780001 11579311
0.53519368 -0.99456066 3.7780001 11775922
0.55153388 -0.9885059 3.7550001 12168882
0.56763399 -0.98245114 3.7320001 12628151
0.58349395 -0.97639638 3.7090001 13154497
0.59570062 -0.96481335 3.6650002 12103853
0.61482924 -0.96481335 3.6650002 12038832
0.63776338 -0.9706049 3.6870003 11841200
0.6570068 -0.9706049 3.6870003 12628402
0.68028539 -0.97639638 3.7090001 12299437
0.69964373 -0.97639638 3.7090001 11707819
0.71047246 -0.96481335 3.6650002 12431542
0.72522151 -0.95902181 3.6430001 12628669
0.74423528 -0.95902181 3.6430001 11114660
0.75884944 -0.9534936 3.6220002 12430774
0.77775359 -0.9534936 3.6220002 12368310
0.80127674 -0.95902181 3.6430001 11314337
0.82029063 -0.95902181 3.6430001 12300207
0.83930439 -0.95902181 3.6430001 12499130
0.86868501 -0.9706049 3.6870003 12301234
0.89322656 -0.97639638 3.7090001 12432820
0.92390299 -0.9885059 3.7550001 12498352
0.9492805 -0.99456066 3.7780001 12499633
0.96899885 -0.99456066 3.7780001 12891824
0.98871726 -0.99456066 3.7780001 13154744
1.0084357 -0.99456066 3.7780001 12957619
1.0346856 -1.0008787 3.8020003 12104374
1.0545293 -1.0008787 3.8020003 12103602
1.0743729 -1.0008787 3.8020003 12431540
1.0873094 -0.99456066 3.7780001 12037549
1.1002884 -0.9885059 3.7550001 11905200
1.1198868 -0.9885059 3.7550001 12102058
1.1394851 -0.9885059 3.7550001 11576214
1.1590835 -0.9885059 3.7550001 11706771
1.1642426 -0.97639638 3.7090001 11113365
1.1765804 -0.9706049 3.6870003 10391440
1.1958239 -0.9706049 3.6870003 10325899
1.2298973 -0.98245114 3.7320001 10587788
1.2728097 -1.0008787 3.8020003 9995138
1.3086331 -1.0132514 3.8490002 10127755
1.3456376 -1.0261507 3.8980002 9995399
1.3659823 -1.0261507 3.8980002 9865346
1.3603644 -1.0069335 3.8250003 10587788
1.3467672 -0.98245114 3.7320001 10126724
1.3336636 -0.95902181 3.6430001 9866378
1.3211162 -0.93664551 3.5580001 9736077
1.3118232 -0.91716498 3.4840002 9799301
1.3101563 -0.90347594 3.4320002 10521995
1.2920811 -0.87899369 3.3390002 9995651
1.2977427 -0.87109619 3.3090003 10126720
1.2915665 -0.85556436 3.2500002 9996419
1.2847742 -0.84003258 3.1910002 11308168
1.2838917 -0.82871282 3.1480002 10982544
1.2932998 -0.82423753 3.131 6116191
1.2891456 -0.81133831 3.0820003 2895682
1.3081959 -0.81318104 3.0890002 3947852
1.3101704 -0.80449378 3.0560002 5060689
1.3222151 -0.8021245 3.0470002 3285813
1.3341657 -0.79975522 3.0380001 2562592
1.3291361 -0.78738248 2.9910002 2892084
1.3393518 -0.78422344 2.9790001 2890035
1.3521711 -0.78264391 2.973 2758186
1.3488265 -0.77185071 2.9320002 2760496
1.3608726 -0.77000791 2.9250002 2434109
1.3639067 -0.76316339 2.8990002 1515321
1.3528742 -0.74868464 2.8440001 3415866
1.3561759 -0.74236661 2.8200002 4009296
1.3363788 -0.72367579 2.7490001 3880530
1.344339 -0.72025353 2.7360001 3939895
1.3536532 -0.71762103 2.7260001 3809841
1.3648702 -0.71604151 2.72 4466477
-0 -0 0 2574114
-0 -0 0 2574114
-0 -0 0 2574114
-0 -0 0 2574114
-2.5225646 -1.2243587 4.7450004 6181732
-2.5367532 -1.2434529 4.8190002 5061974
-2.5116014 -1.2434529 4.8190002 5200201
-2.4864497 -1.2434529 4.8190002 5397580
-2.4424002 -1.2339058 4.7820001 6050372
-2.4174416 -1.2339058 4.7820001 6119254
-2.410995 -1.2434529 4.8190002 5657676
-2.385843 -1.2434529 4.8190002 6708050
-2.3984118 -1.2633214 4.8960004 6051921
-2.3922441 -1.2736427 4.9360003 6250583
-2.4053156 -1.2945431 5.0170002 5917267
-2.4388816 -1.3270551 5.1430001 5720918
-2.4533105 -1.3497618 5.2310004 5391420
-2.4260085 -1.3497618 5.2310004 3682872
-2.3987064 -1.3497618 5.2310004 3814454
-2.3714044 -1.3497618 5.2310004 3291954
-2.3441024 -1.3497618 5.2310004 987419
-2.3168004 -1.3497618 5.2310004 3223350
-2.2894983 -1.3497618 5.2310004 2959650
-2.2816567 -1.3613732 5.276 2894635
-2.2541199 -1.3613732 5.276 2300965
-2.226583 -1.3613732 5.276 2500406
-2.218219 -1.3732426 5.322 2367008
-2.2097867 -1.3853703 5.3690004 2892322
-2.2008634 -1.3974977 5.4160004 1837586
-2.1922517 -1.4101411 5.4650002 2099726
-2.1831288 -1.4227847 5.5140004 1377037
-2.1738849 -1.4356862 5.5640001 988187
-2.18455 -1.4622635 5.6670003 725528
-2.1751266 -1.4759392 5.7200003 1448736
-2.1655247 -1.4898728 5.7740002 1316384
-2.1353889 -1.4898728 5.7740002 1186331
-2.1052525 -1.4898728 5.7740002 1319714
-2.0366619 -1.4622635 5.6670003 1581859
-1.9528961 -1.4227847 5.5140004 1317915
-1.8410665 -1.3613732 5.276 1448218
-1.7385962 -1.3051224 5.0580001 1185814
-1.6187675 -1.2339058 4.7820001 1121304
-1.5111523 -1.169914 4.5340004 1712160
-1.4041572 -1.1043741 4.2800002 1644051
-1.3443676 -1.0744424 4.164 2366743
-1.287377 -1.0458009 4.053 4208672
-1.2415423 -1.0254165 3.9740002 3747869
-1.220801 -1.0254165 3.9740002 3680804
-1.19251 -1.0189657 3.9490001 4011055
-1.1718992 -1.0189657 3.9490001 3550250
-1.1294229 -0.99961329 3.8740001 3483692
-1.1020454 -0.99316257 3.8490002 3746094
-1.0687447 -0.98103511 3.8020003 5789529
-1.0359344 -0.96890759 3.7550001 5460823
-1.0038857 -0.95703816 3.7090001 5394521
-0.98452747 -0.95703816 3.7090001 6184812
-0.96516913 -0.95703816 3.7090001 5723745
-0.95167589 -0.96297288 3.7320001 5658972
-0.93219763 -0.96297288 3.7320001 5395277
-0.9070943 -0.95703816 3.7090001 5855573
-0.88773596 -0.95703816 3.7090001 6512482
-0.86322689 -0.95136148 3.6870003 6250588
-0.84398347 -0.95136148 3.6870003 6250335
-0.82473999 -0.95136148 3.6870003 6184287
-0.80549657 -0.95136148 3.6870003 6181970
-0.78625309 -0.95136148 3.6870003 6775654
-0.7715863 -0.95703816 3.7090001 5065563
-0.76155728 -0.96890759 3.7550001 6579054
-0.75124574 -0.98103511 3.8020003 6249828
-0.73582667 -0.98696983 3.8250003 6448488
-0.72035462 -0.99316257 3.8490002 6186084
-0.70026565 -0.99316257 3.8490002 6185565
-0.67593551 -0.98696983 3.8250003 6251358
-0.65202743 -0.98103511 3.8020003 6249578
